# .PCD v0.7 - Point Cloud Data file format
VERSION 0.7
FIELDS x y z
SIZE 4 4 4
TYPE F F F
COUNT 1 1 1
WIDTH 1514
HEIGHT 1
VIEWPOINT 0 0 0 1 0 0 0
POINTS 1514
DATA ascii
-0.61336708 6.4589748 -3.2610409
16.19393 6.5929222 -3.3729849
18.367655 6.7387061 -3.5964153
18.606552 6.6204109 -3.5240204
18.997772 6.6128721 -3.4236777
19.347704 6.6009469 -3.3299072
-4.0390124 6.8470392 -3.2247543
-3.7540123 6.8190393 -3.4817536
-3.4405708 7.094254 -3.4035201
-2.0640125 7.1837058 -3.5930836
-1.7413895 7.0065489 -3.4184387
-1.409321 7.0065441 -3.3069112
-1.1240121 6.932457 -3.2355835
16.294319 7.0053725 -3.3347507
18.35799 7.0285392 -3.5927505
18.603254 7.003881 -3.5323827
19.003374 7.0122676 -3.4040682
19.324087 7.009737 -3.2878463
-3.4034116 7.3958378 -3.4161499
-2.1032429 7.426528 -3.5633404
-1.7859863 7.4111185 -3.4380405
-1.4030486 7.4152327 -3.288667
-1.1740123 7.4537063 -3.2097473
16.351871 7.3438053 -3.2871027
18.350275 7.3334684 -3.5983188
18.604057 7.4084368 -3.5303948
19.001503 7.3950772 -3.3889101
19.317284 7.3785214 -3.2691934
-3.9240122 7.9037061 -3.2397511
-3.3770795 7.745573 -3.4165504
-2.1872222 7.8086467 -3.5416021
-1.7967401 7.8053331 -3.3848648
-1.4209569 7.783844 -3.2541952
-1.1790122 7.6845388 -3.2147522
16.395988 7.8170395 -3.4097519
16.421989 7.8002386 -3.2701533
18.365988 7.7184682 -3.5954633
18.605202 7.7911186 -3.5331719
19.001905 7.7937994 -3.3974969
19.329866 7.787447 -3.2711785
-4.9685578 8.3574944 -3.4052041
-4.7290125 8.2595387 -3.3397522
-2.453243 8.2731924 -3.5912898
-2.2130342 8.1947565 -3.5192068
-1.7988476 8.197588 -3.3670037
-1.4311954 8.1871805 -3.2511585
16.463987 8.2340393 -3.2767549
18.389322 8.2603722 -3.5964153
18.601334 8.2133408 -3.5304356
18.992416 8.2148962 -3.3886073
19.337162 8.1948814 -3.266613
-9.0440121 8.7470398 -3.3147507
-6.1640129 8.7541828 -3.3494647
-5.882762 8.6851654 -3.4197512
-5.4480119 8.5670395 -3.3837519
-5.1240125 8.4397058 -3.4337504
-2.5060534 8.6205091 -3.5670972
-2.2134507 8.596591 -3.488178
-1.8020802 8.606698 -3.3462274
-1.5020612 8.5548439 -3.2468235
16.472654 8.6003733 -3.3297527
18.35956 8.6456118 -3.5918939
18.60199 8.5935707 -3.5114837
19.007339 8.5939322 -3.3629937
19.322042 8.6154604 -3.2539613
-9.0640125 9.1237059 -3.2997487
-7.2831788 9.1587057 -3.3230846
-6.992722 9.0731688 -3.3852358
-6.5799646 8.9487066 -3.4185598
-6.2767711 8.8642807 -3.4942312
-5.9873452 9.0137062 -3.4230855
-2.5569286 9.0187054 -3.5455837
-2.1929815 9.0015745 -3.4264514
-1.7993534 8.9998808 -3.3064547
-1.5408545 8.9486179 -3.2239621
16.395988 9.0270395 -3.4897461
16.485989 9.0670395 -3.3597488
18.308655 9.0300398 -3.578419
18.587755 8.9954224 -3.4846029
18.981775 8.9975653 -3.3454089
19.291159 8.9722109 -3.2359588
-9.667346 9.5103722 -3.526418
-9.3302622 9.4620399 -3.308501
-9.1182985 9.4289446 -3.3664188
-8.5940123 9.2470388 -3.2464192
-7.6890121 9.4570389 -3.5647507
-7.2825837 9.2470398 -3.4711783
-7.147346 9.213706 -3.5664165
-2.8290124 9.4957886 -3.5710011
-2.5877776 9.4012747 -3.5325744
-2.2004077 9.3998299 -3.4102144
-1.8458033 9.368084 -3.2782581
16.455986 9.5870399 -3.4497452
18.253439 9.4144917 -3.5562212
18.589411 9.4011497 -3.4496136
19.011051 9.415534 -3.2905719
19.228657 9.3417053 -3.2184165
-9.624012 9.8370399 -3.5497437
-9.3825836 9.6834688 -3.4697506
-9.1020117 9.627039 -3.5497468
-3.3940125 9.7070398 -3.5797577
-2.8401663 9.765502 -3.5928252
-2.6120121 9.751502 -3.5146735
-2.1964738 9.7425795 -3.3329813
-1.9240121 9.7396727 -3.2234361
16.497988 9.7946396 -3.3389502
17.985989 9.9770393 -3.5897522
18.213987 9.8013258 -3.5374649
18.600595 9.7763844 -3.3897505
18.974564 9.789896 -3.2556689
19.277988 9.8190403 -3.217752
-11.727012 10.37504 -3.26875
-11.409726 10.327753 -3.2833219
-10.97313 10.311451 -3.3550436
-10.633378 10.182737 -3.3725348
-10.30717 10.11388 -3.467119
17.935987 10.017039 -3.5997467
-14.144012 10.797039 -3.2297516
-13.839013 10.749539 -3.2422523
-12.951256 10.649453 -3.3090615
-12.675376 10.639312 -3.3865683
-12.081981 10.600091 -3.3963614
-11.8359 10.504589 -3.4584296
-11.344346 10.529705 -3.4887502
-11.079467 10.447948 -3.5515692
-14.444012 11.15704 -3.2930858
-14.201687 11.010992 -3.3283548
-13.861382 10.970723 -3.362381
-12.957512 10.934041 -3.4792488
-12.659346 10.911039 -3.5257506
-12.324012 10.905039 -3.5277526
-14.464012 11.20704 -3.2697449
19.085987 -8.412961 -2.8797455
19.396336 -8.444685 -2.8945775
19.729322 -8.4554605 -2.9372494
20.180792 -8.4577608 -3.0213501
20.596516 -8.5250654 -2.9734344
20.971819 -8.5079603 -3.0839169
21.353655 -8.5442944 -3.0840831
-2.1090124 -8.0792103 -2.9134979
-1.7971702 -8.0419083 -2.9097507
-1.5480124 -8.0869598 -2.8517518
7.8906941 -8.0806065 -3.1721013
8.2179232 -8.0871534 -3.0607188
8.6085577 -8.0886736 -2.9431789
8.9214878 -8.0824604 -2.8407524
18.738937 -8.1877136 -2.9592583
18.9617 -8.2886744 -3.0840354
19.396358 -8.3374043 -3.0797503
19.789736 -8.3510857 -3.104126
20.153131 -8.3701029 -3.1611764
-2.0551233 -7.7679605 -2.8619733
-1.7970227 -7.770916 -2.9246957
-1.4123455 -7.7589602 -2.8759172
-1.1322477 -7.7170787 -2.8203411
6.3914418 -7.6993241 -2.9115684
6.4137654 -7.7129612 -2.9108615
7.1102738 -7.614388 -3.1497498
7.4754314 -7.6651831 -3.1403062
7.8184867 -7.7740321 -3.0881438
8.2422953 -7.7983451 -2.9865191
8.5961056 -7.7890058 -2.9045181
8.9059887 -7.859961 -2.8357518
18.766867 -7.7845793 -2.9873979
18.805988 -7.6329598 -3.169749
-2.0681033 -7.3909154 -2.8715696
-1.8200301 -7.393137 -2.9997511
-1.4065679 -7.3937397 -2.9276373
-1.1194669 -7.3934155 -2.8329329
5.0509877 -7.2104607 -2.8347549
5.2859879 -7.2146268 -2.8380864
6.367805 -7.3945522 -2.9495239
6.588963 -7.348197 -3.0967741
7.0039377 -7.3598843 -3.0319302
7.3875718 -7.3832598 -2.9382651
7.7931914 -7.3784008 -2.9012215
8.1657801 -7.4617114 -2.8730834
8.5319872 -7.5339613 -2.8477509
18.773212 -7.3929605 -2.9443347
18.806578 -7.4129605 -3.1479852
-2.0792205 -6.9950452 -2.8549604
-1.8665577 -7.0287781 -3.0667505
-1.3973454 -7.0244875 -3.0510008
-0.97988868 -7.0126534 -2.9478943
-0.59071678 -6.9845524 -2.937705
-0.2064409 -6.9498177 -2.892751
0.20957744 -6.9334731 -2.884366
0.58580583 -6.9200516 -2.8753872
0.97265428 -6.863265 -2.8588424
1.2734878 -6.8254604 -2.812252
2.1759877 -6.8079605 -2.8372536
2.7209876 -6.8079605 -2.8897476
2.9393213 -6.8262939 -2.8197529
3.3759878 -6.8029604 -2.9697571
3.9459877 -6.8329606 -3.1172485
4.2156777 -6.9867768 -2.9742868
4.599792 -7.0703502 -2.9984469
4.9823608 -7.1037288 -3.0128267
5.3608823 -7.1278529 -2.9933672
5.8330326 -7.0492125 -3.0138412
6.1976533 -6.9954624 -3.0201206
6.5957985 -7.0139132 -2.9405124
6.9852753 -7.058104 -2.8666079
7.2947378 -7.1573362 -2.8285027
7.7452192 -7.1514225 -2.8212914
18.774361 -7.0315652 -2.9062624
18.817526 -6.9729609 -3.055136
-2.0727875 -6.5911222 -2.8644447
-1.9205396 -6.5901823 -3.0358605
-1.409568 -6.7385159 -3.1108601
-0.96939695 -6.7541146 -3.1143658
-0.5732311 -6.6792097 -3.0992818
-0.17309277 -6.622386 -3.0820496
0.19634801 -6.5907993 -3.0649769
0.59749734 -6.6013575 -3.0220153
1.0269223 -6.5973539 -2.9736767
1.3415052 -6.651927 -3.0563021
1.7802733 -6.7158184 -3.0149887
2.181514 -6.741118 -3.0310662
2.5734069 -6.7365084 -3.0791039
2.9120748 -6.7442656 -3.0936644
3.3533559 -6.7766452 -3.110276
3.6059878 -6.7729597 -3.0097504
5.8401256 -6.5873289 -3.1287155
6.2002087 -6.5930524 -2.9755301
6.5248256 -6.6515646 -2.84231
18.772654 -6.7022943 -2.8684204
18.870657 -6.5332937 -3.0234177
-2.044637 -6.2917109 -2.8616266
-1.9303024 -6.2263474 -3.0229764
-0.1540122 -6.3929605 -3.1997528
0.23491625 -6.3340311 -3.1729643
0.61277342 -6.2102218 -3.151655
1.003715 -6.1900501 -3.0570235
1.331804 -6.1798992 -3.0362804
5.5424581 -6.1100197 -3.1732779
5.8048992 -6.2051373 -3.059058
6.1858821 -6.1950879 -2.897516
6.4293213 -6.3179607 -2.8197529
18.897381 -6.249239 -3.0267267
-1.959012 -5.9629602 -3.189743
-1.5240126 -5.6029596 -2.8297577
0.63833344 -5.78543 -3.1539471
1.0033275 -5.795805 -3.0465391
1.394807 -5.7933536 -2.9971521
5.1809878 -5.6229601 -3.1997528
5.4238706 -5.7775507 -3.1315157
5.801034 -5.8036151 -2.9693763
6.0815191 -5.8112593 -2.8476233
18.964558 -5.7829604 -3.0023699
-1.4284123 -5.2753601 -2.9393499
0.62576032 -5.3926196 -3.1330469
1.004351 -5.3745055 -3.0181146
1.4161991 -5.3904257 -2.9867928
5.1356649 -5.3594117 -3.1752329
5.3979058 -5.3968 -3.0644984
5.7882314 -5.3998761 -2.9037693
6.0369873 -5.5069609 -2.8207519
18.910221 -5.3933444 -3.0026991
-1.4252428 -4.9928069 -2.9679043
0.78098774 -5.1829605 -3.1897507
1.0638825 -5.1650658 -3.1586971
1.3880564 -5.14572 -3.1152685
5.0728054 -4.9778085 -3.1465693
5.4025011 -4.9918594 -3.0063553
5.7344379 -5.0070448 -2.8583431
18.759321 -4.9043894 -2.8654654
18.868828 -5.0140429 -3.0350211
-1.4300309 -4.5957389 -2.9726217
4.7859879 -4.4279609 -3.1997528
5.0106754 -4.5751476 -3.1192291
5.4028449 -4.5987697 -2.9553697
5.6747379 -4.6085858 -2.8450646
18.68111 -4.578424 -2.9861457
18.835989 -4.7474046 -3.1397486
-1.6301662 -4.0975757 -2.9005208
-1.5187579 -4.2475367 -2.9970381
4.696404 -4.1617107 -3.1724579
5.0017772 -4.1941185 -3.0726981
5.3967423 -4.2012625 -2.8959777
5.6326547 -4.3279605 -2.8180873
18.390987 -4.0729604 -2.8497543
18.535006 -4.1938405 -3.0221672
-1.6604409 -3.7670081 -2.9628475
-1.5709356 -3.8429608 -3.0582118
4.3659878 -3.6329608 -3.1997528
4.6294022 -3.7830825 -3.1354823
5.0038862 -3.7949603 -3.0029502
5.3462629 -3.8169327 -2.8696141
18.315411 -3.7814217 -2.9043658
18.511557 -3.7995317 -3.1051791
-1.7107624 -3.4223347 -3.0492494
-1.5440121 -3.4129605 -3.1997528
4.3751545 -3.3979607 -3.189748
4.6089044 -3.3899391 -3.0961044
5.001039 -3.4061193 -2.9446969
5.3046422 -3.4248834 -2.8414824
18.272615 -3.398864 -2.9230034
18.510174 -3.3901238 -3.1058311
-2.1159239 -3.0253136 -2.9815156
-1.8090124 -3.0412941 -3.0047505
4.261404 -2.871294 -3.1685009
4.6083975 -2.9895866 -3.0915573
4.9996247 -2.9811425 -2.911438
5.2409878 -2.9479609 -2.8197556
16.586897 -2.8752329 -2.882931
16.819323 -2.8396273 -2.8164165
18.272812 -2.9990783 -2.9346912
18.507221 -3.0072069 -3.1116676
-2.0619199 -2.6104023 -2.9825408
-1.941285 -2.5379608 -3.1461134
3.9759877 -2.4929609 -3.1997528
4.2066741 -2.5965874 -3.1369061
4.6002078 -2.5939691 -3.0025954
4.9410529 -2.6045196 -2.8607905
16.611706 -2.5852981 -2.9270225
17.034515 -2.5482545 -2.9523983
17.36323 -2.5657189 -3.0080278
17.870321 -2.5962937 -2.9810846
18.222239 -2.663655 -2.9439175
18.490557 -2.6855319 -3.1208928
-2.414012 -2.0129604 -3.0697479
-2.1820931 -2.1502335 -2.9988422
-1.9690123 -2.0029602 -3.1647491
3.9444878 -2.1349607 -3.1812491
4.2037263 -2.1953957 -3.097316
4.6021342 -2.2004833 -2.9470909
4.900877 -2.2131829 -2.8368633
16.614502 -2.2059395 -3.0081546
-2.2334991 -1.7939005 -3.0081265
3.5959878 -1.8129606 -3.189743
3.8137293 -1.7702725 -3.1484585
4.1961713 -1.7991076 -3.0342453
4.5984864 -1.7975296 -2.890182
4.8370991 -1.907405 -2.8164198
16.603519 -1.8069209 -3.0016322
-2.4199212 -1.3006877 -2.893841
-2.2855165 -1.415742 -3.0051651
3.5634875 -1.2854606 -3.191
3.8047495 -1.385151 -3.1192737
4.2039466 -1.3954092 -2.9779127
4.5341034 -1.4013664 -2.8590262
16.618814 -1.4002434 -3.0031207
-2.4960349 -0.9494772 -2.9681773
-2.3215594 -1.0693755 -3.0816376
3.1559877 -0.81296062 -3.189743
3.4316041 -0.96200156 -3.1538599
3.7955301 -0.99589628 -3.0400262
4.1956654 -1.0024226 -2.9156644
4.467988 -1.0999606 -2.8207519
16.63344 -0.98972547 -3.0111227
-2.5991426 -0.61435205 -2.9935772
3.139559 -0.60081768 -3.176893
3.4043021 -0.59190804 -3.0961711
3.8089581 -0.59078246 -2.9672747
4.1826181 -0.6058954 -2.8589904
16.642918 -0.58773333 -2.9958863
-2.6641583 -0.19405544 -3.0141304
3.1154873 -0.16871047 -3.1732495
3.3965137 -0.20738155 -3.0588031
3.8063543 -0.19241005 -2.9108512
4.0759883 -0.2533308 -2.8353086
16.653387 -0.20368969 -2.9990215
22.164654 -0.079627231 -3.1824157
-2.8040123 0.35703945 -2.8347549
-2.694092 0.18903945 -3.0057504
2.7759876 0.31203938 -3.1997528
3.0162377 0.23028937 -3.1495004
3.4045451 0.18714248 -3.0252151
3.8080711 0.19651866 -2.8808968
4.0389872 0.14203969 -2.8167541
16.674698 0.19994266 -3.0079222
21.965988 0.31503925 -3.1897492
22.13278 0.18232244 -3.1527693
-2.8204408 0.69703925 -2.8797519
-2.7502143 0.59855843 -2.9930415
2.7465429 0.65981728 -3.1808608
2.9977601 0.60400146 -3.108232
3.411356 0.59188157 -2.9779606
3.7534485 0.59005535 -2.863878
16.661095 0.60256034 -3.010896
21.510057 0.68852091 -3.168638
21.805182 0.65687811 -3.0786211
22.187288 0.61418229 -2.9618282
-2.8331151 0.99062914 -2.9400067
-2.7482979 1.0366821 -3.0963576
2.6685636 0.99431241 -3.1553559
2.9985638 1.001266 -3.0571733
3.3926549 1.0008854 -2.9361603
3.7145877 0.99123949 -2.8401518
16.616188 0.99714237 -3.0120182
21.105156 1.1470395 -3.1730816
21.402967 1.0806243 -3.0963535
21.803919 1.0547982 -2.9666464
22.148582 0.97315061 -2.9104917
-2.8422878 1.4320395 -2.9245782
-2.749429 1.3595394 -3.0564156
2.6383824 1.4259127 -3.1497498
3.0100837 1.4237864 -3.0285461
3.3846781 1.3928726 -2.9176075
3.6981304 1.4182298 -2.8261802
16.674973 1.3929718 -3.0600898
16.810987 1.5445395 -3.1772537
21.032543 1.4259286 -3.1506395
21.404924 1.405501 -3.0438859
21.804909 1.4002651 -2.8951278
22.06724 1.2926645 -2.8285007
-2.9293282 1.7965888 -3.0022733
-2.6940124 1.6795397 -3.1005833
2.6091981 1.7804961 -3.131232
3.0017209 1.7750393 -3.0064173
3.3953636 1.8013109 -2.9167283
3.8030384 1.8272958 -2.8891098
4.1559877 1.8235308 -2.9083462
4.5686197 1.8533552 -2.8510666
4.8809876 1.7637061 -2.8214161
16.764214 1.781233 -2.9437826
16.820049 1.813602 -3.1406875
20.685534 1.8388577 -3.1799772
20.998371 1.8065447 -3.1018302
21.406963 1.7895395 -2.974098
21.749275 1.7982725 -2.8592033
-3.0502744 2.196759 -2.9997506
2.7759876 2.0070391 -3.169754
3.0762649 2.2312062 -3.1441939
3.4362583 2.2052824 -3.0975893
3.7958698 2.1856275 -3.0282204
4.1849236 2.1759753 -2.9478357
4.5050359 2.0775158 -2.8649888
16.768051 2.204658 -2.9441957
16.8204 2.2158632 -3.1359272
20.673571 2.1910713 -3.1673303
21.002123 2.1980774 -3.0899391
21.405779 2.1984682 -2.9613829
21.743376 2.2024236 -2.8437514
-3.1119227 2.5968573 -3.0181141
2.1913724 2.745501 -3.125905
2.6267877 2.7278399 -2.9593513
2.9947975 2.628706 -2.9830828
3.4246082 2.4856601 -3.0263026
3.8259878 2.5067456 -2.9223964
4.0982108 2.5053728 -2.8336411
16.768188 2.6212771 -2.9256828
16.828295 2.6049879 -3.1253917
20.385988 2.7570395 -3.1997528
20.642172 2.6304612 -3.1530387
21.002359 2.5947843 -3.0404358
21.403229 2.5955086 -2.9050574
21.674833 2.53127 -2.8309069
-3.2204642 3.0918782 -2.9071689
-3.1476486 2.9891605 -3.0670233
1.8517568 3.0505006 -3.1062891
2.2006614 3.0134525 -3.0179031
2.5930064 2.9935782 -2.8886931
2.8589289 2.9076278 -2.8185749
16.771067 3.003231 -2.9297502
16.819578 2.9931934 -3.1238525
20.361542 3.0225952 -3.1858597
20.605459 2.9957619 -3.0994308
21.002195 3.0008323 -2.9528534
21.342154 2.9775391 -2.8420851
-3.293179 3.4172237 -3.0103989
-3.1840124 3.2603731 -3.1797435
1.5365762 3.5140984 -3.181514
1.8111191 3.4033556 -3.0592239
2.2012937 3.3936725 -2.934751
2.5493724 3.3848848 -2.8462126
16.768793 3.4012496 -2.9162407
16.822735 3.3940163 -3.1176562
20.303764 3.4075947 -3.1791933
20.594193 3.4020398 -3.0855513
20.986887 3.3942313 -2.9480648
21.298765 3.4164834 -2.8464186
-3.6440127 3.9267452 -2.9582815
-3.4563529 3.7308693 -3.0249634
1.472911 3.8267319 -3.1543648
1.8045169 3.8038039 -3.0502415
2.2083585 3.7876585 -2.9205756
2.4776545 3.7820392 -2.8278072
16.774097 3.7800124 -2.8905616
16.838251 3.8149641 -3.084656
20.362864 3.8345394 -3.1941242
20.606998 3.8019891 -3.097023
20.999966 3.7930617 -2.9529753
21.32836 3.7939882 -2.8468702
-3.7543283 4.1976709 -3.0068026
1.1243877 4.28304 -3.1781487
1.3974931 4.2018785 -3.1021159
1.808641 4.1898961 -2.9755666
2.1789145 4.1806989 -2.8703606
2.4426544 4.0520391 -2.8130875
16.790432 4.0570393 -2.8541956
16.864885 4.2142344 -3.0204821
20.307894 4.2144198 -3.1704643
20.599577 4.2133441 -3.0507288
21.007765 4.1938176 -2.9105279
21.288799 4.1573515 -2.828814
-4.0390124 4.722753 -2.9026065
-3.9113686 4.5617523 -3.0228546
0.72998774 4.7730393 -3.1937499
1.0252734 4.6246586 -3.1446309
1.3973831 4.6040158 -3.0324252
1.7907072 4.5904107 -2.9094121
2.0997379 4.5007896 -2.8289192
16.759111 4.727664 -2.8691263
16.872507 4.5897374 -3.0172784
19.983988 4.7410393 -3.1877472
20.215988 4.6211753 -3.1340036
20.605988 4.6131029 -2.993048
20.984499 4.5946999 -2.8760266
21.228846 4.4684682 -2.812609
-4.0601664 5.0564618 -2.9909043
-3.9802623 4.9270396 -3.1060009
0.35598755 5.1720395 -3.1997528
0.63528353 5.0280261 -3.155102
1.0029352 5.0081968 -3.0683818
1.3958857 5.0054073 -2.9561784
1.7243595 4.9765754 -2.8502169
16.646076 5.0131111 -2.9850185
16.854652 4.8683729 -3.1357524
19.948486 5.0282893 -3.190999
20.202135 5.000998 -3.1091251
20.604254 4.9983668 -2.9636264
20.946161 4.9868646 -2.8499277
-4.1238022 5.4012504 -2.9999609
0.32848769 5.4345398 -3.1822493
0.60362208 5.4068236 -3.0979233
1.0054501 5.3979001 -2.9916861
1.3873281 5.3985853 -2.883359
1.6397376 5.3082891 -2.8185043
16.334221 5.5429215 -2.87975
16.5371 5.3912983 -3.0203066
19.887333 5.4301167 -3.1559043
20.204464 5.404098 -3.0477502
20.598492 5.3982363 -2.9185538
20.882559 5.3627543 -2.8366098
-4.2049212 5.8027673 -3.0029325
-0.04401207 5.9870396 -3.1997528
0.22516574 5.8199172 -3.1441329
0.59567511 5.7987061 -3.0179794
0.99167377 5.7967458 -2.9069064
1.3054613 5.7328296 -2.8331733
15.990988 5.9820395 -2.8497467
16.225821 5.8275528 -2.9916308
16.460081 5.6874948 -3.1356597
19.82338 5.8029103 -3.1208377
20.196943 5.8067203 -2.9808142
20.565989 5.768939 -2.8635483
20.823486 5.6470394 -2.8097534
-4.1911988 6.1949553 -3.0139167
-0.12039526 6.2574663 -3.1593251
0.19824575 6.1909113 -3.0613632
0.60265428 6.193707 -2.9395416
0.94647968 6.1680236 -2.8463092
16.125505 6.1834903 -3.0802341
19.568716 6.2224941 -3.1779313
19.815985 6.1698771 -3.0439389
20.208042 6.170115 -2.8989809
20.459875 6.1131506 -2.8308649
-4.1432047 6.6057239 -3.0070233
-0.86526233 6.7470398 -3.1947498
-0.58108133 6.6870403 -3.1197505
-0.20030095 6.6045647 -3.0958328
0.21284159 6.5936685 -2.9693007
0.58870375 6.5733356 -2.8628376
0.85598767 6.452754 -2.8211823
16.183277 6.6196318 -3.0191326
19.812073 6.6328516 -3.003669
20.188337 6.6004963 -2.8771579
20.405987 6.6570396 -2.8097534
-4.1274333 6.9178281 -2.9810658
-3.6980126 7.1310396 -2.9477477
-3.5471375 7.102664 -3.0531869
-0.9585194 7.0328145 -3.1562281
-0.60944706 7.006712 -3.0623593
-0.19303669 6.9974036 -2.9529209
0.17701334 6.9888339 -2.8732128
0.48214155 6.8655009 -2.8266766
16.251095 6.998888 -3.0075774
19.520988 6.9720392 -3.1147537
19.812435 6.9997277 -2.9519002
20.124214 6.9730072 -2.8537834
-4.1140127 7.2692618 -2.8219757
-3.5186589 7.4084549 -2.9996486
-1.2040124 7.2270393 -3.1997528
-0.98836529 7.3965707 -3.1302211
-0.59472674 7.3976345 -3.0284405
-0.20862769 7.3994555 -2.9008493
0.089536086 7.3289766 -2.8245919
16.312191 7.3984394 -3.0093513
19.495987 7.3070393 -3.1797485
19.804979 7.4019818 -2.9249182
20.102964 7.4251795 -2.8353329
-4.0590124 7.7770395 -2.8447571
-3.7360122 7.8010392 -2.9824169
-3.4790123 7.7140045 -3.025285
-1.2610712 7.8952746 -3.1915131
-0.99936116 7.8063416 -3.1241696
-0.59569901 7.7975197 -3.0116794
-0.2337456 7.7827725 -2.8912165
0.015987635 7.6620393 -2.8197556
16.362186 7.7737474 -2.9739282
16.414738 7.8901644 -3.1522484
19.819592 7.801302 -2.9258142
20.092035 7.8065753 -2.8369613
-5.2606788 8.3528728 -2.8897514
-4.9540124 8.2765636 -3.0088
-4.6965132 8.1964149 -3.039752
-1.2451888 8.2146854 -3.1803355
-0.98598868 8.2033176 -3.0847509
-0.60318744 8.2055969 -2.9818127
-0.2777859 8.1717558 -2.8610718
16.388489 8.0878725 -2.8722508
16.435045 8.2168512 -3.0188069
19.485989 8.377039 -3.1997528
19.831562 8.20786 -2.915488
20.077589 8.2022409 -2.8293536
-9.0040121 8.797039 -3.169754
-8.6940126 8.797039 -2.8897552
-6.9600129 8.7850399 -2.8497498
-6.5318398 8.7413874 -2.9558384
-6.2340121 8.6938581 -3.1129324
-5.8390117 8.5450392 -3.0107498
-5.4090123 8.4607897 -3.0072505
-1.3111862 8.6298656 -3.1684444
-1.0080341 8.5944309 -3.0684469
-0.60607421 8.5996161 -2.9236677
-0.34841239 8.5790396 -2.8329515
16.480816 8.6056604 -2.9826818
19.490988 8.5653725 -3.1897507
19.833582 8.6131506 -2.8917873
20.055363 8.5657892 -2.821003
-9.6840115 9.1170397 -2.9497528
-9.2217903 9.1425953 -2.8541956
-8.9823904 9.0548782 -2.973804
-8.6826792 9.060708 -3.003751
-8.0931034 9.0674944 -2.9042969
-7.865376 9.0493126 -2.9006591
-7.3947024 9.0518684 -2.939923
-7.0205903 8.9241457 -3.0081718
-6.6446376 8.8532887 -3.1022491
-1.3605577 9.0363102 -3.1377501
-1.0106789 9.0088778 -3.0028536
-0.64956772 8.9765625 -2.868799
-0.38401246 8.8270397 -2.8097534
16.510323 8.9922056 -2.9782507
19.417416 9.0613241 -3.1797485
19.811234 8.993432 -2.8774557
20.019321 8.9337063 -2.8130848
-9.6406784 9.4837065 -2.8764141
-9.3441858 9.342556 -2.986129
-8.9634857 9.3015127 -3.0681727
-8.7193975 9.2808847 -3.0959039
-8.1740122 9.2370396 -2.8197479
-7.9477625 9.2295399 -2.9247513
-7.3465118 9.2145386 -3.0672493
-1.6900125 9.5030403 -3.1737494
-1.4014281 9.4029932 -3.0830092
-0.99470991 9.4042501 -2.9239357
-0.72226226 9.3935394 -2.8317528
16.520901 9.3875847 -2.9664781
19.335703 9.4424696 -3.1688921
19.774355 9.3968344 -2.8497519
-10.834012 9.9870396 -2.8247528
-10.590047 9.8932457 -2.9081995
-10.236512 9.7064142 -2.9503746
-9.8368692 9.6898956 -2.9526062
-1.7348456 9.7270393 -3.1530826
-1.3980505 9.7066555 -3.0372505
-1.002661 9.6865015 -2.8948855
-0.77734548 9.6503725 -2.8164165
16.521212 9.7922544 -2.9419243
19.157986 9.7810392 -3.1937485
19.384935 9.7333555 -3.0776439
19.720984 9.7167053 -2.8810837
-13.389012 10.352039 -2.8547516
-13.044012 10.312038 -2.8397522
-12.447346 10.33704 -2.8664196
-12.139419 10.312173 -2.9532635
-11.81813 10.302626 -3.0344558
-11.403689 10.207685 -3.0455573
-10.955833 10.136131 -3.0015688
-10.731095 10.05829 -3.0834999
16.518988 10.07704 -2.88275
-14.164013 10.78204 -3.0797501
-13.67687 10.642755 -2.9997494
-13.422584 10.504183 -2.964035
-13.013144 10.690084 -3.117141
-12.56544 10.463468 -3.1361783
-12.16746 10.492212 -3.0769911
-11.419012 10.632039 -3.1797485
-14.425013 10.94304 -2.9777513
-14.320812 11.008239 -3.0069489
-13.874012 10.897039 -3.189743
-13.081512 10.837039 -2.9622536
-2.540679 -8.4662943 -2.4703064
-2.3170123 -8.4499607 -2.5637512
-1.6840123 -8.4929609 -2.6530864
-1.2160122 -8.4729605 -2.4797516
-0.98401242 -8.4963989 -2.5072484
-0.64157325 -8.4988136 -2.4651158
18.611588 -8.43536 -2.6417511
19.025988 -8.4862938 -2.7364147
19.363131 -8.5086756 -2.7711771
-2.5856519 -8.2096815 -2.5448327
-2.1510715 -8.2947254 -2.719161
-1.9790125 -8.3229609 -2.744751
-1.341285 -8.157052 -2.7106593
-0.9721157 -8.1926165 -2.6202681
-0.5996182 -8.2203865 -2.5379324
-0.22645132 -8.1541796 -2.4553592
0.025987625 -8.0729609 -2.4097443
8.7359877 -8.0429602 -2.7997437
9.1224594 -8.0864897 -2.7785726
9.3932095 -8.0718479 -2.6769724
9.8109884 -8.0674038 -2.5230837
10.087988 -8.074295 -2.4337485
18.592443 -8.1827469 -2.6259863
-2.4547017 -7.8295116 -2.4645774
-2.2638903 -7.7627192 -2.6514575
-1.3020122 -7.9509606 -2.7827468
-0.94939709 -7.7329617 -2.7364161
-0.58294564 -7.7953596 -2.6165516
-0.19501226 -7.7591047 -2.5196068
0.11646386 -7.7331977 -2.4526069
0.51598787 -7.6029596 -2.4097443
6.3553343 -7.6918712 -2.5719237
6.4122376 -7.7910852 -2.724123
9.0569544 -7.7602186 -2.7570071
9.4086847 -7.7982416 -2.6027839
9.7814875 -7.8002081 -2.5077498
10.074321 -7.8579617 -2.4218311
18.612127 -7.7847781 -2.6125917
-2.4175839 -7.4515328 -2.4304624
-2.2597389 -7.3988562 -2.6256485
-0.95763296 -7.4265819 -2.7630253
-0.60015815 -7.3924394 -2.6651666
-0.19760783 -7.3632989 -2.6081779
0.20338927 -7.3903646 -2.5747898
0.58054215 -7.380188 -2.5408392
0.97772694 -7.3178887 -2.497576
1.3019878 -7.2379599 -2.4367492
3.9926541 -7.2462935 -2.4230804
4.1884456 -7.3471985 -2.5567839
4.5989113 -7.3832684 -2.5729811
4.9970894 -7.3676872 -2.5678611
5.3943386 -7.3488846 -2.573051
5.8106923 -7.3338451 -2.5761235
6.2289362 -7.3919992 -2.6003282
7.9759874 -7.2329607 -2.7997437
8.247879 -7.2789059 -2.7573164
8.6141834 -7.3288631 -2.6887658
9.0128937 -7.3949847 -2.6165364
9.3853226 -7.392427 -2.4821498
9.6909885 -7.5024605 -2.4322503
18.624784 -7.3935642 -2.6044471
-2.4111552 -7.0572462 -2.4154599
-2.2754161 -7.0026975 -2.6153638
-0.86651242 -7.1779604 -2.7897453
-0.51544082 -7.1815314 -2.788317
-0.17785843 -7.1310372 -2.7528269
0.20906463 -7.128345 -2.7482128
0.60581219 -7.1113815 -2.7360656
1.0023409 -7.052608 -2.7018678
1.3946912 -7.0155525 -2.6115096
1.7965909 -6.9612384 -2.5749221
2.1828997 -6.9231067 -2.5522504
2.6088214 -6.8734603 -2.5519171
3.0083914 -6.9215193 -2.5859044
3.3908708 -6.9290071 -2.5603333
3.8265612 -6.9539957 -2.5396347
4.0999599 -7.0592618 -2.6761894
4.5977521 -7.1776667 -2.7609272
4.8159876 -7.1929598 -2.7797546
5.5334878 -7.1829605 -2.7697487
5.8034873 -7.1846275 -2.7772484
6.1993213 -7.1729608 -2.7689159
6.7659879 -6.8429613 -2.7997437
7.0170588 -6.8658171 -2.7654631
7.4213567 -6.9784336 -2.7144866
7.7956343 -6.9671955 -2.6798673
8.2185488 -6.9767413 -2.5980427
8.5898848 -7.0202327 -2.5326061
8.9787474 -7.0498586 -2.4764736
9.2688446 -7.1336751 -2.4290347
18.645987 -6.9964848 -2.6171358
-2.414012 -6.6929598 -2.4097443
-2.2444248 -6.6236811 -2.6340806
1.5709877 -6.7879601 -2.779747
1.73821 -6.7829599 -2.7697499
2.5534878 -6.7904606 -2.7297478
6.670095 -6.550818 -2.7577853
7.0022097 -6.6020703 -2.6496387
7.3886347 -6.611196 -2.526319
7.782496 -6.6847072 -2.4703848
8.1998777 -6.7585163 -2.4380798
8.4209881 -6.7829599 -2.4147491
10.666232 -6.4932036 -2.5707271
11.009757 -6.5335402 -2.5342433
11.280433 -6.5951838 -2.4341946
18.649792 -6.628314 -2.5951025
18.815987 -6.4829607 -2.7997437
-2.1465125 -6.3679609 -2.7647476
-1.9540119 -6.1929598 -2.7897491
6.3617024 -6.0358176 -2.7883213
6.6142879 -6.1820593 -2.702951
6.9977574 -6.1936908 -2.5471461
7.2798343 -6.2083454 -2.4379539
10.640419 -6.1967101 -2.5437284
11.005314 -6.1963315 -2.5048075
11.302398 -6.2278333 -2.4348774
18.68256 -6.1823897 -2.5423231
18.857321 -6.1342936 -2.7637482
-1.6040125 -5.8229609 -2.439743
-1.5552623 -5.6660857 -2.4991236
6.2870216 -5.7796845 -2.7544053
6.5992889 -5.8031597 -2.6369505
6.9801936 -5.8056889 -2.487705
7.2359872 -5.9354601 -2.4122467
10.595721 -5.8260283 -2.4630828
10.963489 -5.9301486 -2.4384995
11.225988 -5.9929609 -2.419754
18.723572 -5.7877874 -2.5373349
18.84313 -5.772676 -2.7134626
-1.6065125 -5.4429607 -2.4147491
-1.5300797 -5.3817244 -2.5906491
-1.1790123 -5.412961 -2.4547501
5.9834881 -5.2479601 -2.797245
6.2151623 -5.3861556 -2.7226362
6.6043067 -5.3936133 -2.5629289
6.9034338 -5.4274287 -2.4469829
10.389321 -5.2696271 -2.419754
10.435987 -5.5279608 -2.4097443
18.728636 -5.3850188 -2.5488687
18.828716 -5.4320517 -2.7456582
-1.634397 -4.9468069 -2.4739802
-1.5318328 -5.013473 -2.6455204
5.913867 -4.9487185 -2.7745981
6.1961789 -4.9883451 -2.6650391
6.5969048 -4.999382 -2.5067234
6.8299875 -5.0799599 -2.4237473
10.366612 -4.9517107 -2.4553757
10.478412 -4.9484158 -2.4349
18.645397 -4.9979124 -2.6046009
-1.6377375 -4.5725684 -2.5038683
-1.5327423 -4.6020074 -2.6962583
5.8666034 -4.5732684 -2.7446725
6.2015314 -4.5889025 -2.6103444
6.5573282 -4.6190586 -2.4825554
10.322654 -4.6896272 -2.4347501
10.464987 -4.7419615 -2.4287477
18.36599 -4.4856272 -2.4730835
18.506569 -4.6222634 -2.6296341
-1.6816962 -4.1949615 -2.5921712
-1.4962345 -4.3007379 -2.7808599
5.5959878 -4.0979605 -2.7997437
5.822823 -4.195919 -2.7241373
6.2139668 -4.1850767 -2.5546541
6.5063949 -4.2266326 -2.4436271
10.125988 -4.1279607 -2.4097443
18.294943 -4.1848221 -2.5798664
18.437164 -4.3094306 -2.7409265
-1.7268848 -3.8009393 -2.5873027
-1.5940123 -3.8329601 -2.7997437
5.5309882 -3.767961 -2.7780828
5.7948055 -3.7961438 -2.6822047
6.1879258 -3.8011234 -2.5042398
6.4345593 -3.8665316 -2.4197476
10.069321 -3.6762936 -2.4130783
17.979988 -3.6389606 -2.4417541
18.159842 -3.8105659 -2.6237085
-2.0984569 -3.2274046 -2.607532
-1.8345025 -3.4040387 -2.6176913
5.4977531 -3.4080586 -2.7611222
5.7922125 -3.3902059 -2.6257703
6.1465201 -3.4149609 -2.473083
10.067655 -3.5312939 -2.4097443
17.918129 -3.3577819 -2.497072
18.089603 -3.3917105 -2.6936388
-2.1961234 -2.9708493 -2.6008611
-1.7620122 -3.1729608 -2.7357514
5.1759877 -2.8429604 -2.7997437
5.424293 -2.932791 -2.7341566
5.8070111 -2.9792109 -2.5916822
6.1157603 -3.0161424 -2.4713409
10.077238 -2.8567107 -2.4134979
16.395988 -3.0029607 -2.4177489
16.550369 -2.9488659 -2.6130831
16.997061 -2.9748654 -2.6203456
17.376558 -2.9559488 -2.5856123
17.817165 -2.986372 -2.5079861
18.089657 -2.9819603 -2.6423051
-2.4706788 -2.629627 -2.4380825
-2.2112648 -2.6310928 -2.6120577
5.1429572 -2.5656879 -2.7764158
5.4046121 -2.5972719 -2.667182
5.8008909 -2.6052687 -2.5168657
6.0545592 -2.7036746 -2.4240329
9.4818411 -2.5622287 -2.4453588
9.6159878 -2.6129603 -2.419754
10.101441 -2.5088694 -2.4247484
16.395988 -2.412961 -2.4097443
16.47262 -2.6043286 -2.6037498
17.006294 -2.6679602 -2.7529314
17.39427 -2.685029 -2.671129
17.804466 -2.6917746 -2.5811062
18.099047 -2.7157381 -2.6450276
-2.4208307 -2.1529603 -2.4474771
-2.3309517 -2.2141852 -2.635566
5.0844254 -2.1748354 -2.750844
5.4049492 -2.1965456 -2.6052217
5.7405009 -2.2097898 -2.4634092
9.5151548 -2.2599051 -2.4278026
9.922987 -2.1874607 -2.433249
10.150613 -2.192836 -2.4436245
16.395988 -2.1879606 -2.4197464
16.473101 -2.2050717 -2.6019723
-2.4449961 -1.7667309 -2.50893
-2.34498 -1.8305407 -2.6989434
4.7759876 -1.6554606 -2.7897491
5.018858 -1.7882084 -2.7247989
5.4131184 -1.7959174 -2.5574038
5.6947107 -1.8155136 -2.4442172
9.5226545 -1.8596271 -2.4097443
9.9374151 -1.7949606 -2.4520364
10.120301 -1.8296274 -2.4475932
16.476456 -1.7956667 -2.5961025
-2.5071268 -1.3914028 -2.5978653
-2.3751233 -1.5396272 -2.7475264
4.7276549 -1.3685158 -2.7691946
5.0093827 -1.3942448 -2.6680079
5.3969302 -1.3973948 -2.5139017
5.6429105 -1.5052681 -2.4266722
9.5582952 -1.3029606 -2.4189806
9.8706169 -1.3985163 -2.4354889
10.042654 -1.5207382 -2.419749
16.493216 -1.4044503 -2.6065581
-2.8123457 -0.8579607 -2.4280803
-2.6335571 -1.0188695 -2.6156592
-2.2290123 -0.94796085 -2.6247482
4.3959875 -0.90296078 -2.7897491
4.6276188 -0.97176486 -2.7220325
5.0014834 -0.99872625 -2.6032639
5.3667746 -1.0027357 -2.4682891
9.573987 -1.1389606 -2.4237456
9.8198767 -0.97851616 -2.4125247
16.511715 -1.0036894 -2.6024587
-2.8232017 -0.55512267 -2.4735334
-2.7376969 -0.6162501 -2.6643555
4.3593211 -0.48129392 -2.7855823
4.6093593 -0.59194946 -2.6668296
4.9950261 -0.59603733 -2.5369627
5.311543 -0.60647911 -2.436785
9.573988 -0.48696041 -2.4317443
9.6883678 -0.56581777 -2.415462
16.521036 -0.5967468 -2.601691
-2.8770125 -0.17918277 -2.5429728
-2.7760808 -0.20606393 -2.73699
4.2531757 -0.16311672 -2.7688117
4.6090097 -0.19546054 -2.6629791
4.9934878 -0.1904605 -2.5017958
5.2413206 -0.19829375 -2.4157481
9.5709867 -0.29296058 -2.4333191
9.698843 -0.17296059 -2.438499
16.545986 -0.19347602 -2.6062453
-2.8985167 0.20920157 -2.5896606
-2.7840121 0.099539518 -2.7897491
3.9759877 0.38703918 -2.7997437
4.2213373 0.2127371 -2.7288194
4.6073289 0.20497763 -2.6184108
4.9989634 0.1939442 -2.4873695
5.2059879 0.11703968 -2.4097443
9.511898 0.29703939 -2.4620223
9.7371883 0.20583943 -2.4834833
16.547367 0.20589 -2.631819
-2.9113173 0.59660476 -2.6082721
-2.6840124 0.4920392 -2.7847519
3.9340646 0.64050096 -2.7797482
4.2117519 0.60915691 -2.688103
4.5861092 0.61703956 -2.5865796
4.9528446 0.59003949 -2.461607
9.479146 0.6105482 -2.4718556
9.7209873 0.57816857 -2.4968474
10.109321 0.53037292 -2.5330861
16.532213 0.60775369 -2.5858727
-2.9357092 0.9956246 -2.5948446
-2.6440125 0.82703972 -2.7997437
3.9070516 1.0334226 -2.7695367
4.211103 0.99773693 -2.6606803
4.6028357 0.99682188 -2.5345337
4.9067569 0.97665477 -2.4391723
9.4916744 1.022922 -2.5113194
9.7378931 0.99227762 -2.4687965
10.035987 1.1537062 -2.4797482
16.528078 1.0047318 -2.5894206
22.328209 1.1470395 -2.7764163
22.415987 1.1370395 -2.763087
-2.9423161 1.3950055 -2.5967836
3.8919451 1.3964009 -2.7574093
4.199398 1.3922665 -2.6625912
4.6037502 1.3932235 -2.5314615
4.9486966 1.4747478 -2.5147495
5.4082608 1.564312 -2.5152047
5.8502731 1.5770394 -2.4454651
6.1059875 1.5770392 -2.419749
9.5017271 1.3762197 -2.5146687
9.7923517 1.4221305 -2.49575
10.130432 1.3037062 -2.4764132
16.596294 1.394424 -2.597136
22.228323 1.4185977 -2.7528672
22.438656 1.3930395 -2.7057505
-3.2180123 1.9490395 -2.4317474
-3.0684764 1.7979324 -2.5976965
3.9049878 1.6470394 -2.7957458
4.2026544 1.6670398 -2.7675273
4.6312509 1.709934 -2.7415917
4.9942946 1.7695011 -2.7206733
5.4056087 1.7921027 -2.5991178
5.7593713 1.7910398 -2.5103657
6.1131301 1.7156109 -2.4293921
6.6853619 1.7945392 -2.4353743
7.0488443 1.812397 -2.4815342
7.3578062 1.8370395 -2.4502037
7.8768969 1.7643123 -2.4279299
8.0719872 1.7880394 -2.4217467
8.5679874 1.7610395 -2.4517486
9.4901056 1.692922 -2.4497509
9.7370987 1.6392617 -2.4408569
16.660032 1.8055788 -2.5988505
21.951546 1.8003726 -2.7864149
22.199284 1.7986355 -2.7248561
22.459558 1.8145392 -2.6522501
-3.2250643 2.2507236 -2.4868557
-3.1432428 2.1682701 -2.6649804
4.2999878 2.3315394 -2.7662506
4.6319885 2.2390394 -2.7013066
4.9698043 2.1975656 -2.6113288
5.3514719 2.0999427 -2.5468459
5.688488 2.0520394 -2.4741259
6.7459879 2.0170393 -2.4097443
16.671137 2.193377 -2.6128197
21.935131 2.2116106 -2.7826049
22.198542 2.2078917 -2.6925163
22.484638 2.224067 -2.6021836
-3.2549381 2.6279652 -2.5171568
-3.1648633 2.5872524 -2.7165587
3.1639876 2.7830393 -2.7837493
3.3859882 2.7435393 -2.7512505
3.8334877 2.7545395 -2.6164169
4.2544727 2.6573422 -2.5867181
4.6274428 2.5394032 -2.5635681
4.9775887 2.4938395 -2.4453485
16.673723 2.6018846 -2.6073792
21.837259 2.6284683 -2.7494316
22.199183 2.6002307 -2.6496437
22.500435 2.606817 -2.5639739
-3.2874212 3.0220382 -2.6007726
-3.1790123 2.8420391 -2.7747498
2.7859876 3.1670399 -2.7997437
3.0368207 3.0257297 -2.7491546
3.4076374 3.0279663 -2.6418111
3.7903032 3.0093563 -2.5161712
4.1043754 2.9796202 -2.432651
16.667368 2.9998055 -2.6008146
21.538908 3.0237062 -2.7759991
21.794157 3.0030606 -2.7095351
22.205774 2.999943 -2.6060951
22.535147 2.9928021 -2.5146658
-3.3851697 3.3984072 -2.6166978
2.7316401 3.4453006 -2.7845306
2.9983528 3.401449 -2.7066314
3.3963213 3.4002612 -2.5826397
3.7864122 3.3949115 -2.4725158
4.0119872 3.3130393 -2.4117463
16.673016 3.4079299 -2.603909
21.487528 3.3822315 -2.7610965
21.802238 3.4013572 -2.6829317
22.199251 3.3987739 -2.5631182
22.543936 3.4023819 -2.4709835
-3.7006788 3.8417823 -2.5848787
-3.5260715 3.67204 -2.6653385
2.6693702 3.8221862 -2.7534258
2.9993222 3.8044138 -2.6413667
3.3940465 3.8112142 -2.5245078
3.7155962 3.7629216 -2.4383759
16.693991 3.8015947 -2.607306
21.527655 3.817317 -2.7744708
21.791842 3.791189 -2.6919844
22.19944 3.8116825 -2.5765364
22.570995 3.803915 -2.4905002
-3.8420932 4.2035046 -2.6097498
2.3568211 4.3012066 -2.7847469
2.6132214 4.2071462 -2.7113459
2.9889655 4.1975718 -2.5806012
3.382266 4.1843648 -2.4671919
3.6326544 4.0337062 -2.4130809
16.732349 4.1889877 -2.5622177
16.830816 4.2784185 -2.7014735
21.478708 4.2312222 -2.7610235
21.800682 4.1982403 -2.6651502
22.197289 4.2095394 -2.5310547
22.533581 4.1450024 -2.4404907
-4.058013 4.6647902 -2.5889993
-3.9377897 4.4932623 -2.6221938
1.9709878 4.7820396 -2.7897491
2.2303431 4.6341367 -2.7545881
2.5877123 4.5939364 -2.6421642
3.005631 4.6016827 -2.5001073
3.3223515 4.50704 -2.4306581
16.395988 4.7670393 -2.4097443
16.622097 4.6160851 -2.5953054
16.827654 4.4420395 -2.7680817
21.164557 4.7284675 -2.7954602
21.415989 4.6063724 -2.7450838
21.789854 4.6069269 -2.6283875
22.19401 4.5915942 -2.4959879
22.425987 4.5170393 -2.4117463
-4.1467385 5.0195656 -2.6033869
1.8799877 5.0670395 -2.7789989
2.195878 4.9926448 -2.6862338
2.60711 5.0094872 -2.5462811
2.9501143 4.9711661 -2.4499073
16.301702 5.0430398 -2.5456073
16.493307 4.9448972 -2.705107
21.122114 5.0512333 -2.7778139
21.394459 5.0026512 -2.6936281
21.796106 5.00073 -2.5610595
22.15151 4.9780836 -2.452436
-4.2391844 5.4019828 -2.6005545
1.5659877 5.5390396 -2.7977448
1.8097372 5.4144154 -2.7488759
2.1851337 5.4031363 -2.6193845
2.5992439 5.3872728 -2.4688196
2.8559875 5.3092618 -2.4241927
15.927238 5.5270395 -2.4628735
16.196829 5.3897104 -2.6128044
16.413486 5.2995396 -2.7772522
21.056156 5.4485645 -2.758224
21.395567 5.4056697 -2.6520658
21.802755 5.391727 -2.517355
22.107576 5.413631 -2.4302032
-4.4065123 5.7670393 -2.4972496
-4.3491387 5.8086653 -2.6211247
1.4515051 5.853075 -2.7763011
1.8062876 5.8021388 -2.6744506
2.1976175 5.7943215 -2.5626855
2.5647876 5.7822409 -2.4514832
2.8259878 5.6670394 -2.4097443
15.911177 5.7487054 -2.588825
16.078293 5.6996036 -2.7220585
20.717987 5.9130402 -2.7792487
21.00362 5.8018837 -2.7173786
21.385441 5.7995386 -2.6109464
21.790846 5.8081503 -2.493083
22.067293 5.7370391 -2.4223559
-4.2771444 6.1847506 -2.6005936
1.1114717 6.2380075 -2.7855549
1.4100084 6.2095137 -2.7208836
1.802796 6.2159743 -2.6090071
2.1922517 6.2050595 -2.5100803
2.4439876 6.1230397 -2.4367478
16.148767 6.2873173 -2.5641949
20.657568 6.2131796 -2.7362413
21.008337 6.2128396 -2.6349349
21.400902 6.249074 -2.5251737
21.732264 6.2119417 -2.4528878
-4.4040127 6.7770395 -2.4297485
-4.2624116 6.6126404 -2.6181498
0.74098778 6.7206116 -2.7726059
1.0198904 6.6100864 -2.7290189
1.4001635 6.5897865 -2.6508493
1.7993211 6.5976858 -2.5221157
2.1514041 6.5280819 -2.4449565
16.176567 6.6067491 -2.6184449
20.360987 6.6687064 -2.7930806
20.603514 6.6000094 -2.7131166
21.001451 6.6119876 -2.5730493
21.400032 6.6011891 -2.4942186
21.673986 6.5490394 -2.4277489
-4.2445779 6.9862843 -2.6314473
-3.803642 7.1459284 -2.7590094
-3.5640121 7.1320395 -2.6897507
0.33752617 7.1370387 -2.7835939
0.61637741 7.0193768 -2.7375424
1.0007068 6.9954643 -2.6399748
1.3934385 6.9992952 -2.5620055
1.7412337 6.9701538 -2.4571269
16.209066 7.0066562 -2.6226988
20.307545 7.035707 -2.7624166
20.596556 7.0105619 -2.6775906
21.00462 6.9918809 -2.544908
21.360987 6.9790411 -2.4473217
21.605988 6.8070393 -2.4097443
-4.4040127 7.5170393 -2.6097565
-4.17939 7.4156947 -2.6716826
-3.7930124 7.3994846 -2.7035279
-3.5782976 7.4513254 -2.7159417
0.25659379 7.421433 -2.7636888
0.60782439 7.392446 -2.6685259
1.006796 7.4124942 -2.5564175
1.386205 7.383996 -2.469533
1.6389878 7.2770395 -2.4267488
16.246983 7.3942862 -2.6248746
20.291197 7.3882899 -2.7635
20.611118 7.3863993 -2.6630833
21.012352 7.3871698 -2.5332572
21.313623 7.3897657 -2.4399316
-4.414012 7.6070395 -2.7097473
-4.2162709 7.7241373 -2.6028144
-3.7862349 7.6961513 -2.6573067
-3.5815122 7.6295395 -2.7697487
-0.03673948 7.8979478 -2.7652047
0.20725088 7.8188305 -2.7182772
0.60098755 7.8005104 -2.6184254
0.99834692 7.8052402 -2.5095255
1.2838004 7.7339149 -2.435688
16.309326 7.7923484 -2.6020961
20.286987 7.7962904 -2.7787483
20.585838 7.8212199 -2.696466
20.984161 7.8021612 -2.5601172
21.282286 7.8007426 -2.4390078
-6.0140123 8.3570395 -2.439743
-5.8087177 8.3008623 -2.5153387
-5.3973451 8.2720394 -2.5930829
-5.0190125 8.1933737 -2.6794164
-4.6884561 8.1137056 -2.6330855
-0.09110906 8.2447805 -2.7745879
0.19728181 8.2104502 -2.6835146
0.60976547 8.2048149 -2.5597506
0.96628177 8.1923342 -2.4547493
16.363398 8.1966944 -2.6200948
16.405987 8.3070393 -2.7997437
20.284189 8.2028389 -2.7483501
20.584803 8.2084856 -2.6580389
20.998678 8.2018127 -2.5103476
21.267237 8.1201649 -2.4291239
-8.9374733 8.7224245 -2.4843669
-8.665411 8.6594381 -2.5273499
-8.1972561 8.6692028 -2.5375881
-7.7401886 8.6779222 -2.5150437
-7.3996797 8.6518726 -2.5180838
-7.0007772 8.6371851 -2.5762215
-6.623486 8.6049337 -2.6092217
-6.1861863 8.5274734 -2.5914903
-5.8210125 8.4490395 -2.6917481
-0.14966445 8.6151552 -2.7448225
0.20598777 8.6016054 -2.6281199
0.60438782 8.5954409 -2.5063505
0.88654315 8.5428715 -2.4316936
16.382654 8.5659294 -2.5147498
16.418173 8.6179762 -2.6931887
20.237488 8.6280384 -2.7520833
20.598196 8.6123323 -2.6347497
20.995722 8.5958395 -2.4904165
21.213987 8.6190395 -2.4097443
-9.726512 9.1632891 -2.5147495
-9.3732624 9.0177898 -2.5407493
-9.0631781 8.916872 -2.63925
-8.4720125 8.9270382 -2.5797486
-8.1906786 8.9329367 -2.6169286
-7.7736421 8.9566679 -2.6586399
-7.4654403 8.9696112 -2.7071769
-7.0340123 8.8570395 -2.654747
-0.47173959 9.0779486 -2.7824748
-0.19944711 8.9960604 -2.7147503
0.20098773 9.0018234 -2.5806201
0.59798771 9.0110407 -2.4668612
0.83154327 8.9137058 -2.4275293
16.385988 8.9198971 -2.4354618
16.437342 9.0056829 -2.6351728
19.935987 9.1970396 -2.7997437
20.212713 9.0135965 -2.7310615
20.617495 8.9925203 -2.5989282
20.956312 8.9957294 -2.4725361
-10.531789 9.5081501 -2.447525
-10.155899 9.4277935 -2.5439007
-9.8098011 9.3646173 -2.6345925
-9.469306 9.3164511 -2.7209258
-8.9790115 9.5820398 -2.5147552
-8.0640125 9.2070389 -2.7497559
-7.9160128 9.2610397 -2.6837494
-7.3813453 9.2470398 -2.7090809
-0.52365512 9.4215031 -2.7726064
-0.19859566 9.408185 -2.6690209
0.20384488 9.4049997 -2.5306695
0.50285047 9.3631163 -2.4432788
16.453489 9.4067268 -2.6074073
19.947987 9.4115391 -2.7887483
20.19972 9.4017076 -2.69575
20.592701 9.3979588 -2.5511985
20.889517 9.3911572 -2.4423966
-12.967346 9.9870396 -2.4197438
-12.794012 9.9870396 -2.4497528
-12.139012 9.9745398 -2.4522552
-11.753486 9.9538813 -2.4565918
-11.341236 9.9281502 -2.5575268
-10.961958 9.8304644 -2.6126261
-10.683031 9.7625303 -2.6921024
-10.217345 9.6770391 -2.5347493
-9.7640123 9.6070395 -2.6847458
-8.9880123 9.6530399 -2.4417481
-0.59435719 9.6673822 -2.7642322
-0.2148819 9.6496477 -2.6440988
0.20829538 9.624732 -2.4974437
0.46265444 9.6103735 -2.4230855
16.469833 9.8050394 -2.5923645
19.965988 9.7720394 -2.7314174
20.192396 9.7139635 -2.6715453
20.588091 9.6912508 -2.5297518
20.881989 9.6870394 -2.4267488
-13.769637 10.34829 -2.5291252
-13.370011 10.255374 -2.559752
-13.070012 10.20504 -2.54495
-12.510166 10.197423 -2.6424432
-12.171578 10.143256 -2.6478584
-11.80401 10.11124 -2.644151
-11.501631 10.050849 -2.6664174
-11.075263 10.052039 -2.7547493
16.476404 10.08204 -2.588501
-14.014012 10.522039 -2.4597549
-13.784431 10.483705 -2.5464191
-13.519012 10.48704 -2.6634998
-13.004012 10.78704 -2.7847519
-14.329468 10.92613 -2.5588408
-2.8040123 -8.4829607 -2.0197525
-2.741441 -8.5215321 -2.2051775
-2.0240121 -8.5379601 -2.0347443
-1.7890122 -8.5289602 -2.1457493
-1.3865124 -8.540103 -2.2851083
-1.0096645 -8.6464396 -2.1875763
-0.53201234 -8.6384621 -2.3687501
-0.25865513 -8.554388 -2.2997508
0.1778059 -8.4902344 -2.1433861
0.49973765 -8.5073347 -2.0366249
18.385986 -8.4029608 -2.2197571
18.440987 -8.4204607 -2.3172531
-2.8090124 -8.36796 -2.0197525
-2.7292297 -8.1929607 -2.206852
-1.2640123 -8.2929602 -2.1397552
-0.0990123 -8.2969599 -2.3747497
0.20845345 -8.195838 -2.2930377
0.59013867 -8.1586199 -2.1605048
0.93390441 -8.0642118 -2.0876667
10.310654 -8.0542946 -2.3617523
10.614042 -8.0671272 -2.2416954
11.0095 -8.0678244 -2.095155
11.269321 -8.0685158 -2.0230832
18.353544 -8.2080717 -2.1068621
18.449623 -8.1931877 -2.3020239
-2.8115125 -7.6554604 -2.0272484
-2.6246178 -7.7847795 -2.2099521
0.27085257 -7.8097196 -2.3756981
0.61515439 -7.7661729 -2.2793939
0.97782987 -7.7596726 -2.1852753
1.3635485 -7.7085705 -2.0804815
1.8096241 -7.6279602 -2.026114
2.1989877 -7.6279602 -2.0187485
2.5926545 -7.6096268 -2.0097504
3.1459877 -7.6129599 -2.0097504
3.9852736 -7.6551027 -2.0826089
4.1977453 -7.7485662 -2.1430464
4.6051049 -7.7415872 -2.1930838
4.9823518 -7.7605996 -2.232842
5.4182501 -7.7433176 -2.2447505
5.7962575 -7.755527 -2.1796155
6.2037024 -7.7046742 -2.2124646
6.5784874 -7.827961 -2.0197525
6.8959875 -7.8779602 -2.0722504
9.9409876 -7.61796 -2.3972511
10.218194 -7.7789907 -2.3609278
10.606399 -7.7994561 -2.1948016
10.967731 -7.8150549 -2.0763783
11.243488 -7.9804611 -2.0147476
18.364908 -7.8129592 -2.0846152
18.45879 -7.8031597 -2.2865522
-2.8173459 -7.5496268 -2.026418
-2.5890119 -7.4141088 -2.2218823
0.7232604 -7.546597 -2.3579352
1.0241358 -7.5035162 -2.3297515
1.4064729 -7.4143181 -2.2597506
1.7951543 -7.4075904 -2.1856768
2.2057288 -7.4019279 -2.1496639
2.5985589 -7.39715 -2.1174638
3.0069604 -7.3814549 -2.0946174
3.3976738 -7.3315005 -2.0668283
3.8655624 -7.3704071 -2.1488285
4.1578927 -7.5439119 -2.3395128
4.5246539 -7.5656281 -2.3724172
5.0552735 -7.567246 -2.3826087
5.4309883 -7.5376973 -2.3573818
5.785553 -7.5323095 -2.3364894
6.1671419 -7.5625763 -2.3478301
9.5468206 -7.2679601 -2.383086
9.8311234 -7.3676896 -2.3528597
10.2079 -7.4122868 -2.2754807
10.604107 -7.3930602 -2.1352949
10.88672 -7.4324727 -2.0477991
13.240988 -7.3129606 -2.012249
18.367725 -7.3912215 -2.0714881
18.457268 -7.3912582 -2.264643
-2.5129828 -7.0373716 -2.295927
1.5059876 -7.1929598 -2.3997498
1.8759878 -7.1545396 -2.3492248
2.2267721 -7.1043329 -2.3105354
2.6139879 -7.0619006 -2.2711625
2.9721296 -7.1019607 -2.2880366
3.4085743 -7.122098 -2.2871654
3.8025918 -7.1276774 -2.317487
8.2259874 -6.8129606 -2.369751
8.6822376 -6.8379602 -2.3509998
9.0122385 -6.8710852 -2.3441248
9.4139338 -6.9992599 -2.3270111
9.7985144 -7.0107365 -2.2300534
10.197482 -7.0381336 -2.1365323
10.550036 -7.1081986 -2.0542743
10.805988 -7.1829615 -2.0197449
18.375986 -6.9934154 -2.0515678
18.474344 -6.9883347 -2.2569146
-2.4173458 -6.7496276 -2.3897502
7.5226541 -6.4385161 -2.3853064
7.8180332 -6.4831882 -2.3458877
8.1989336 -6.558857 -2.2965453
8.6030712 -6.6006684 -2.2053745
8.9694653 -6.6304965 -2.1238084
9.3780937 -6.7098026 -2.088171
9.7246542 -6.7536268 -2.0497487
10.355119 -6.5603518 -2.047143
10.550989 -6.6052327 -2.1765685
10.981896 -6.6940989 -2.1352043
11.445353 -6.5970888 -2.3054657
11.800624 -6.568326 -2.2436526
12.200365 -6.5599909 -2.1069381
12.482511 -6.5494823 -2.0175755
18.383766 -6.5868487 -2.0536397
18.473751 -6.603487 -2.2390919
-1.8295124 -6.1327109 -2.0972512
7.4792695 -6.1678057 -2.3475637
7.7916193 -6.1949 -2.2512059
8.2011309 -6.1904855 -2.1587985
8.5708523 -6.2364755 -2.0673182
8.8359871 -6.3579607 -2.0097504
10.355989 -6.1644502 -2.0935805
10.476135 -6.216691 -2.2797503
11.474387 -6.1793613 -2.3693502
11.787656 -6.1882744 -2.2633963
12.188937 -6.2142425 -2.1002626
12.455987 -6.3221269 -2.0180829
18.389988 -6.3029609 -2.0277467
18.488297 -6.2009077 -2.2025719
-1.7755959 -5.7903757 -2.194751
-1.5740124 -5.7729607 -2.3777528
7.1626544 -5.6796269 -2.3908625
7.4124775 -5.792429 -2.3073041
7.8098559 -5.7938099 -2.1587129
8.1790819 -5.8203406 -2.0626078
8.4404325 -5.9496279 -2.0253041
10.333458 -5.7886567 -2.1530411
10.529647 -5.7658882 -2.353653
11.023365 -5.7419758 -2.3358164
11.401579 -5.7991962 -2.2737288
11.790927 -5.8033314 -2.1502442
12.127712 -5.8798575 -2.0683699
18.541666 -5.7788696 -2.1902058
-1.7829286 -5.3858767 -2.1844177
-1.5660124 -5.3789611 -2.0597503
-1.1090124 -5.4729605 -2.3197479
7.0874152 -5.3801017 -2.3688588
7.4073358 -5.3954329 -2.2517729
7.7928958 -5.3994541 -2.0942864
8.0572376 -5.4835854 -2.0241232
10.301969 -5.3981004 -2.1965718
10.605173 -5.4052863 -2.3252158
11.01251 -5.4032502 -2.2225046
11.410629 -5.3919463 -2.1032293
11.658489 -5.4229603 -2.0291243
18.56288 -5.3930573 -2.2053816
-2.0225837 -4.9586749 -2.0297492
-1.8163559 -4.9917898 -2.2106094
7.0153437 -4.9933906 -2.3477077
7.4131489 -5.001143 -2.200773
7.77215 -5.0088911 -2.0659134
10.204916 -4.998816 -2.2016788
10.655805 -5.0290723 -2.358639
11.008766 -4.9739332 -2.2368336
11.396873 -4.9977703 -2.0955739
11.647417 -5.0101032 -2.0249882
18.346249 -4.9374342 -2.0968556
18.475271 -5.0275316 -2.2604647
-2.0271699 -4.6255918 -2.0292222
-1.8339362 -4.5946283 -2.2218721
6.7483687 -4.5462937 -2.3797512
6.9960895 -4.5943007 -2.3016064
7.4004984 -4.603745 -2.1421032
7.6799407 -4.6399364 -2.043936
9.9679871 -4.5099607 -2.0337493
10.188586 -4.5955591 -2.245656
10.615273 -4.5903888 -2.3081794
10.993305 -4.5917411 -2.2781649
11.408057 -4.5838804 -2.1529682
11.730412 -4.5346918 -2.0684047
18.268826 -4.6027637 -2.2043583
18.410988 -4.7679605 -2.3397522
-2.0271943 -4.1743245 -2.0438414
-1.867052 -4.2010984 -2.2377908
6.6965537 -4.1803198 -2.3523932
6.9901867 -4.1960597 -2.2336502
7.3610601 -4.2289033 -2.0748231
7.6109877 -4.3379607 -2.0147476
9.9137077 -4.2017322 -2.1057155
10.17073 -4.2132211 -2.314147
10.608768 -4.2194881 -2.2297497
10.990112 -4.1992493 -2.2792356
11.399694 -4.1890283 -2.2277269
11.80283 -4.2044086 -2.0809345
