# .PCD v0.7 - Point Cloud Data file format
VERSION 0.7
FIELDS x y z
SIZE 4 4 4
TYPE F F F
COUNT 1 1 1
WIDTH 1772
HEIGHT 1
VIEWPOINT 0 0 0 1 0 0 0
POINTS 1772
DATA ascii
9.3977003 -2.1863999 -2.2007999
9.8078003 -2.2 -2.3548
10.351 -2.2109001 -2.3856001
10.593 -2.2016001 -2.3173001
11.002 -2.1912999 -2.1884999
11.389 -2.2086999 -2.0766001
11.621 -2.3180001 -2.0098
16.349001 -2.2052 -2.1968
16.406 -2.063 -2.3996999
-2.6041999 -1.7951 -2.2091
5.8808999 -1.7713 -2.3547001
6.2063999 -1.79 -2.2274001
6.5742998 -1.8164999 -2.0731001
9.4615002 -1.796 -2.2121
9.7681999 -1.7976 -2.3527
10.297 -1.7476 -2.3784001
10.587 -1.8013 -2.2951
10.997 -1.7921 -2.1659999
11.387 -1.8115 -2.0603001
16.357 -1.8053 -2.1689999
16.412001 -1.7711999 -2.3668001
-2.8223 -1.233 -2.0613999
-2.6657 -1.4068 -2.2014999
5.586 -1.243 -2.3996999
5.8242002 -1.3882 -2.3311999
6.2013001 -1.3997999 -2.1705
6.4962001 -1.4151 -2.0450001
9.1809998 -1.2505 -2.0246999
9.3951998 -1.3988 -2.2297001
9.7388 -1.4222 -2.3703001
10.217 -1.3857 -2.3412001
10.598 -1.3943 -2.2349
11.006 -1.4173 -2.125
11.318 -1.4363 -2.0411999
16.358999 -1.3913 -2.1400001
16.422001 -1.3832999 -2.3474
-2.8924 -0.97191 -2.1656001
-2.7467 -1.1195 -2.3059001
5.5546999 -0.97904998 -2.3810999
5.8042998 -0.99778003 -2.2825
6.2014999 -1.0005 -2.1125
6.4482999 -1.0494 -2.0209
9.1732998 -0.97829002 -2.0237
9.4008999 -0.99452001 -2.2149999
9.7889996 -0.98308003 -2.3873999
10.197 -1.0005 -2.3194001
10.595 -1.0116 -2.2011001
10.994 -0.99620998 -2.0883999
11.238 -1.0963 -2.0186
16.358 -0.99695998 -2.1247001
16.424999 -0.99589998 -2.3311999
-2.9347 -0.59144002 -2.2049999
5.5007 -0.56766999 -2.3664
5.8046999 -0.59937 -2.2332001
6.1831002 -0.61329001 -2.0767
6.4060001 -0.68295997 -2.0098
9.191 -0.74295998 -2.0197999
9.4231997 -0.59938997 -2.1891999
9.8304996 -0.61633998 -2.3852
10.187 -0.59750998 -2.3116
10.574 -0.58898997 -2.1917
10.927 -0.62913001 -2.0551
16.367001 -0.61190999 -2.1241
16.427999 -0.59117001 -2.3204999
-3.0393 -0.20061 -2.2197001
5.1960001 -0.23296 -2.3996999
5.4239001 -0.19357 -2.3410001
5.8017001 -0.1981 -2.2035
6.1290002 -0.21963 -2.0609
9.4224005 -0.19762 -2.1728001
9.8640003 -0.22296 -2.3640001
10.214 -0.20847 -2.2818999
10.605 -0.21012001 -2.1914999
10.928 -0.21322 -2.0516
16.365 -0.23349001 -2.1008
16.437 -0.20207 -2.3020999
-3.0736001 0.19723 -2.2004001
5.1693001 0.35371 -2.3964
5.4022999 0.21213999 -2.3113999
5.8095002 0.20715 -2.1600001
6.0921001 0.20977999 -2.0502999
9.4155998 0.17254999 -2.1608
9.7910004 0.11204 -2.3740001
10.254 0.16177 -2.313
10.563 0.20025 -2.2379
10.965 0.21763 -2.0803001
16.375 0.23404001 -2.1092
16.437 0.19401 -2.2864001
-3.1064999 0.60425001 -2.2176001
5.1487999 0.60904002 -2.3889999
5.3902998 0.59131002 -2.3139
5.8060002 0.61663997 -2.1431999
6.0914998 0.56397998 -2.04
9.3639002 0.60737997 -2.1169
10.076 0.79703999 -2.2997999
10.632 0.54703999 -2.1916001
10.918 0.48036999 -2.1847999
16.381001 0.61221999 -2.0709
16.431 0.61325002 -2.2672999
-3.204 0.99703997 -2.0098
-3.1105001 1.0007 -2.2061
5.1029 1.027 -2.3671
5.388 1.0122 -2.2802
5.7992001 1.008 -2.1141
6.0427999 0.97650999 -2.0171001
9.3725004 0.99681997 -2.1640999
9.8814001 0.95818001 -2.3340001
10.173 0.95279998 -2.2342999
10.558 0.99195999 -2.1111
16.386 0.97656 -2.0520999
16.450001 1.0084 -2.2502999
-3.2295001 1.5211 -2.0878999
-3.1025 1.387 -2.2367001
5.0338998 1.312 -2.3648
5.4029002 1.3581001 -2.2737999
5.8192 1.3875 -2.1623001
6.1956 1.4572001 -2.2258999
6.5707002 1.4626 -2.1498001
6.9460001 1.4962 -2.1024001
7.4133 1.5326999 -2.0806
7.8397002 1.5664001 -2.0729001
8.2209997 1.5477999 -2.0943999
8.4716997 1.5785 -2.214
9.1210003 1.5645 -2.0922
9.3428001 1.3942 -2.197
9.9160004 1.227 -2.2397001
10.29 1.327 -2.3598001
10.601 1.3731 -2.2823999
10.896 1.461 -2.1617
16.343 1.3582 -2.0309
16.474001 1.3801 -2.2002001
-3.3078001 1.8246 -2.1863
-3.1451001 1.6885999 -2.3392
6.2768002 1.7988 -2.346
6.5685 1.8198 -2.3120999
7.0349998 1.6753 -2.3111
7.4394999 1.7214 -2.2976
7.8053002 1.7745 -2.3250999
8.2526999 1.6995 -2.3364
8.5513 1.6911 -2.3288
9.1006002 1.7424001 -2.1661999
9.3769999 1.8191 -2.2588
9.8036003 1.8644 -2.2952001
10.155 1.8456 -2.2226
16.542 1.8018 -2.2084999
-3.3378 2.2104001 -2.2061
5.1659999 2.3469999 -2.3848
5.427 2.3380001 -2.2353001
5.7687001 2.1798 -2.2743001
6.2231002 2.0599 -2.2297001
6.5941 2.0432999 -2.2140999
9.1960001 2.217 -2.0098
9.3114996 2.2047999 -2.0852001
9.8196001 2.102 -2.1405001
10.173 2.1819999 -2.0373001
16.547001 2.2012999 -2.2056
-3.3787 2.5957999 -2.2042
4.5760002 2.7969999 -2.3826001
5.1195998 2.5927999 -2.3269
5.3863001 2.5580001 -2.1694
5.6160002 2.5969999 -2.0164001
9.1429005 2.6308999 -2.0567
9.2883997 2.5853 -2.0471001
16.549 2.6034 -2.2082
-3.4365001 3.0167 -2.2072999
4.2649002 3.0437 -2.3635001
4.5995002 3.017 -2.2853999
5.0074 3.0102999 -2.1586001
5.3386998 2.967 -2.0467
9.1379995 2.9818001 -2.04
9.2476997 2.9403999 -2.0222001
16.558001 2.9877999 -2.2121
-3.6805 3.4969001 -2.1438
-3.4971001 3.3561001 -2.2391
3.9960001 3.5569999 -2.3996999
4.2048001 3.4124 -2.3475001
4.6016998 3.4017999 -2.2209001
4.9938998 3.3996 -2.0871999
5.2652001 3.2701001 -2.0181999
9.0390997 3.4454999 -2.0190001
16.576 3.3893001 -2.2746999
-3.8412001 3.7937 -2.1996
3.8879001 3.8492 -2.3649001
4.2027001 3.8027999 -2.2728
4.5981998 3.7966001 -2.1515
4.9239001 3.7774 -2.0558
8.9879999 3.753 -2.0098
16.632999 3.8055 -2.1754999
-4.0040002 4.3969998 -2.0397
-3.9289999 4.1960001 -2.2014
3.5676999 4.3186998 -2.3880999
3.8096001 4.1987 -2.3361001
4.2140999 4.1936998 -2.2077
4.5955 4.1900001 -2.0794001
4.8537002 4.1209002 -2.0228
16.363001 4.342 -2.0611999
16.566999 4.1908002 -2.2234001
22.676001 4.2683001 -2.3717999
22.806 4.2870002 -2.3397999
-4.1185002 4.5977998 -2.1698999
-3.9728 4.4394002 -2.2767999
3.4644001 4.6399999 -2.3606999
3.8038001 4.6037002 -2.2586
4.2007999 4.6018 -2.122
4.4984999 4.5938001 -2.0344999
16.278999 4.6385002 -2.1675999
16.476 4.5110002 -2.3227999
22.396 4.6869998 -2.3996999
22.605 4.6068001 -2.3483
22.823999 4.6329999 -2.2776999
-4.4089999 5.1570001 -2.0272999
-4.2948999 5.0253 -2.1875
3.1141 5.0647001 -2.3848
3.4000001 5.0036998 -2.3127
3.8010001 5.007 -2.1795001
4.1922002 4.9846001 -2.0651
4.4492998 4.8881998 -2.0153
15.931 5.0868001 -2.1046
16.134001 4.9559002 -2.2502999
22.325001 5.0444002 -2.3778
22.599001 5.0026002 -2.2993
22.851 5.0170002 -2.2076001
-4.4159002 5.4589 -2.0625999
-4.3424001 5.3737998 -2.2388999
2.6931 5.4755998 -2.3898001
3.0190001 5.4134998 -2.3526001
3.3959 5.3948002 -2.2451
3.8099 5.4014001 -2.1039
4.1346002 5.3362002 -2.0262001
15.872 5.3785 -2.2718
16.039 5.2558999 -2.3685999
22.302 5.3881001 -2.3683
22.599001 5.3993001 -2.2678001
22.874001 5.4078999 -2.1638999
-4.4117999 5.7821999 -2.1973
-4.3859 5.8551002 -2.2697999
2.727 5.8843999 -2.3840001
3.0148001 5.8088002 -2.2816
3.4036 5.7961998 -2.1484001
3.7581 5.7739 -2.0511
15.819 5.6504002 -2.3831
16.103001 5.9619999 -2.0973001
22.250999 5.7845001 -2.3508
22.59 5.7550998 -2.234
22.91 5.7634001 -2.1210001
-4.3344002 6.2104001 -2.197
2.6658001 6.1973 -2.3213999
3.0076001 6.2097001 -2.2056999
3.3945 6.2023001 -2.0736001
3.6559999 6.0819998 -2.0181
16.156 6.1810999 -2.2160001
21.915001 6.2879 -2.3829
22.207001 6.2314 -2.2860999
22.603001 6.2112002 -2.1465001
22.9 6.1837001 -2.0364001
-4.5197001 6.6966 -2.1717999
-4.3312001 6.5223999 -2.2472
1.9809999 6.7519999 -2.3898001
2.2391 6.6925001 -2.3587
2.6073999 6.6068001 -2.2972
2.9986999 6.5904002 -2.1630001
3.3048999 6.5767999 -2.0408001
16.212999 6.5833998 -2.1796999
21.847 6.6293998 -2.3547001
22.202 6.5907001 -2.2361
22.606001 6.5936999 -2.1071999
22.837999 6.6027999 -2.0197001
-4.8681002 6.9382 -2.0555999
-4.5899 6.8938999 -2.1966
-4.2663999 7.1346998 -2.2195001
1.9102 7.0539999 -2.3728001
2.1942 7.0029998 -2.3039999
2.5974 6.9920001 -2.1986001
2.9877999 6.9874001 -2.0738001
3.2504001 6.8704 -2.0242
16.238001 7.1694999 -2.2948
21.532 7.0700002 -2.3831
21.799999 6.9896002 -2.3146
22.201 6.9917002 -2.1805999
22.610001 7.0049 -2.0637
22.846001 6.9194999 -2.0109999
-4.4271998 7.4884 -2.0778999
-4.3262 7.3378 -2.2275
1.5547 7.5358 -2.3896999
1.8063999 7.4134998 -2.3313
2.1970999 7.3979001 -2.2377999
2.5987 7.3962998 -2.1122
2.8910999 7.3824 -2.0249
16.245001 7.3748002 -2.3209
21.516001 7.3892002 -2.3785
21.806999 7.3881998 -2.283
22.207001 7.3923001 -2.1500001
22.537001 7.3421001 -2.0476
-4.8839998 7.7470002 -2.0531001
-4.5100002 7.6329999 -2.1264
-4.2507 7.8487 -2.2997999
1.4477 7.8304 -2.3685
1.8009 7.7993002 -2.2701001
2.2058001 7.8003998 -2.1584001
2.5471001 7.7862 -2.0725
2.836 7.652 -2.0098
16.290001 7.7599001 -2.3369
21.481001 7.8070002 -2.3678
21.792999 7.8028002 -2.2537999
22.212 7.7985001 -2.1073999
22.458 7.7670002 -2.0302
-9.3352003 8.3022003 -2.0701001
-8.9211998 8.3120003 -2.0912001
-8.5407 8.3903999 -2.1198001
-8.2017002 8.3260002 -2.1524
-7.7993002 8.3318005 -2.1935999
-7.4450002 8.3400002 -2.1097
-6.9289999 8.3620005 -2.1931
-6.5544 8.3057003 -2.1254001
-6.1687999 8.2578001 -2.1933
-5.8382001 8.1722002 -2.2674999
-5.4554 8.0841999 -2.3211999
-5.0640001 8.007 -2.3397999
1.1502 8.2490997 -2.3887
1.396 8.2132998 -2.3243999
1.7988 8.2002001 -2.2100999
2.1884 8.2010002 -2.0752001
2.4839001 8.0781002 -2.0218999
16.327 8.2407999 -2.3522999
21.431999 8.2384005 -2.3450999
21.775 8.2252998 -2.2284
22.211 8.1943998 -2.0782001
22.447001 8.0769997 -2.0185001
-9.7790003 8.6858997 -2.0597
-9.4015999 8.6101999 -2.1682
-8.9947996 8.5650997 -2.2451
-8.5493002 8.4988003 -2.2527001
-8.1821003 8.5127001 -2.2941
-7.7697001 8.5382004 -2.2972
-7.4390001 8.5005999 -2.3225999
-7.0068998 8.4742002 -2.3540001
-6.6079001 8.4532003 -2.3459001
-6.3839998 8.4504004 -2.3764
1.0607001 8.6377001 -2.365
1.4014 8.6028004 -2.2711
1.8072 8.5991001 -2.1982
2.1499 8.6344995 -2.1040001
16.348 8.5453997 -2.3647001
16.416 8.5670004 -2.0597999
21.176001 8.7969999 -2.3996999
21.416 8.6002998 -2.3304999
21.798 8.6036997 -2.1898999
22.153 8.5695 -2.0609
-10.489 8.9169998 -2.0848
-10.107 9.0683002 -2.2012
-9.7907 8.9946003 -2.2395999
-9.4694996 8.9601002 -2.3269
-9.1445999 8.9126997 -2.2997999
-8.2139997 8.8470001 -2.3498001
-7.1939998 8.8470001 -2.3598001
0.77349001 9.1269999 -2.3973
1.0223 9.0221996 -2.3368001
1.4161 9.0150995 -2.2098999
1.7977999 9.0091 -2.1947
2.1903 9.0192003 -2.1112001
2.4315 9.0704002 -2.0286
16.360001 8.9455996 -2.3540001
21.164 9.0319996 -2.3862
21.393999 8.9946003 -2.3066001
21.791 9.0045004 -2.1547999
22.096001 8.9682999 -2.0425
-14.024 9.5869999 -2.0197001
-11.35 9.5553999 -2.0609
-10.98 9.5335999 -2.1503999
-10.558 9.3848 -2.1777999
-10.229 9.3136997 -2.3018
-9.9840002 9.2220001 -2.3896999
-7.5539999 9.2270002 -2.3996999
0.68485999 9.4384003 -2.3780999
0.98771 9.4020004 -2.2813001
1.3934 9.3697004 -2.1642001
1.7781 9.3556995 -2.1526999
2.1775999 9.3219995 -2.0569999
16.393999 9.3549995 -2.3076999
16.416 9.4420004 -2.2822001
21.087 9.4124002 -2.3656001
21.413 9.3977003 -2.2491
21.806999 9.4087 -2.1066
22.052999 9.3620005 -2.0243001
-14.174 9.6669998 -2.2198
-13.739 9.8204002 -2.0681
-13.352 9.8986998 -2.1303
-12.965 9.8549995 -2.1470001
-12.595 9.8193998 -2.1233001
-12.198 9.8699999 -2.1736
-11.805 9.7916002 -2.1668999
-11.42 9.7143002 -2.2096
-11.027 9.6693001 -2.2967
-10.154 9.6070004 -2.3397999
-9.0507002 9.6337004 -2.3631001
0.65265 9.6136999 -2.3631001
16.396 9.9020004 -2.1173
16.417999 9.7873001 -2.2716999
21.065001 9.6681995 -2.3548
21.385 9.6669998 -2.2284
21.761 9.6344995 -2.1022999
22.056 9.6070004 -2.0098
-14.014 10.322 -2.2697001
-13.859 10.322 -2.2874999
-13.419 10.158 -2.2007
-13.033 10.045 -2.3331001
-12.552 10.054 -2.2839999
-12.36 10.035 -2.3578
16.384001 10.093 -2.1487999
16.424999 10.091 -2.3269999
-14.023 10.537 -2.2047
-13.938 10.469 -2.2632999
-1.1339999 -8.8330002 -1.6098
-0.1829 -8.8174 -1.6720001
0.22599 -8.8648005 -1.697
0.58023 -8.9193001 -1.7261
1.0323 -8.9323997 -1.7098
1.3704 -8.8945999 -1.6953
1.7017 -8.8758001 -1.6411999
-2.9064 -8.5579996 -1.8063999
-2.7107 -8.6918001 -1.862
-2.079 -8.6063004 -1.8331
-1.7529 -8.6606998 -1.8056
-1.3484 -8.6871004 -1.7902
-1.0686001 -8.7200003 -1.8285
-0.56094003 -8.7683001 -1.7059
-0.30735001 -8.7784996 -1.7575001
0.25749001 -8.7135 -1.9132
0.62247002 -8.6174002 -1.9353
0.99291998 -8.5993996 -1.8134
1.3999 -8.5675001 -1.7056
1.767 -8.4951 -1.6434
2.1707001 -8.4356003 -1.6251
2.4260001 -8.4230003 -1.6098
-2.8915 -8.1812 -1.7723
-2.7858 -8.1647997 -1.9488
0.69599003 -8.3667002 -1.9735
1.0398999 -8.2298002 -1.9276
1.3928 -8.2024002 -1.8372
1.8043 -8.1966 -1.79
2.2047 -8.2154999 -1.7273999
2.5903001 -8.1731005 -1.6901
3.0121 -8.0970001 -1.7036
3.4101 -8.1099997 -1.687
3.7709999 -8.1076002 -1.6947
4.2178998 -8.0958004 -1.6928999
4.6062002 -8.1148005 -1.7314
5.0158 -8.1218996 -1.7697999
5.4036002 -8.1302004 -1.7535
5.7877002 -8.1185999 -1.7467999
6.1947999 -8.0925999 -1.7217
6.6167998 -8.0742998 -1.6987
6.9656 -8.0872002 -1.6894
11.458 -8.0611 -1.9375
11.807 -8.066 -1.8739001
12.205 -8.0629997 -1.7307
12.503 -8.0702 -1.6286
13.494 -8.0883999 -1.8186001
13.798 -8.1072998 -1.8929
14.194 -8.1112003 -1.7977999
14.592 -8.1009998 -1.7124
14.951 -8.1117001 -1.641
18.292999 -8.1774998 -1.8223
-2.9224999 -7.8053999 -1.8265001
-2.7839999 -7.8990002 -1.9818
1.186 -7.9829998 -1.9998
1.4507999 -7.9229999 -1.9658
1.8033 -7.8989 -1.9170001
2.1995001 -7.8460999 -1.89
2.5917001 -7.8601999 -1.8631001
2.9860001 -7.7670002 -1.9155
3.4058001 -7.7273002 -1.9287
3.8116 -7.7589002 -1.9001
4.0833001 -7.8709998 -1.9004
4.6160002 -7.993 -1.8598
5.0289998 -7.9819999 -1.9658
5.3887 -7.9865999 -1.937
5.8533001 -7.9566002 -1.9679
6.1947999 -7.9141002 -1.9328001
6.6027002 -7.9015002 -1.905
6.9194002 -7.9349999 -1.8642
11.147 -7.7164998 -1.9798
11.408 -7.7982001 -1.9099
11.805 -7.7978001 -1.7965
12.193 -7.8081002 -1.682
12.462 -7.9047999 -1.6210001
13.186 -7.6163001 -1.6431
13.407 -7.7979999 -1.8077
13.787 -7.8155999 -1.8558
14.216 -7.8058 -1.7737
14.601 -7.7978001 -1.7079
14.933 -7.8151999 -1.6385
18.281 -7.7930999 -1.8037
-2.865 -7.552 -1.9248
-2.7753 -7.4092002 -1.9234999
3.006 -7.5830002 -1.9998
3.4270999 -7.5358 -1.9905
3.7756 -7.5464001 -1.9804
11.079 -7.3751001 -1.9564
11.404 -7.3941998 -1.8629
11.795 -7.3885002 -1.7289
12.092 -7.4268999 -1.64
13.135 -7.3452001 -1.7134
13.38 -7.4001999 -1.8898
13.788 -7.3867002 -1.802
14.203 -7.3959999 -1.7228
14.559 -7.4271002 -1.6697
14.898 -7.5482998 -1.6221
18.257999 -7.3923001 -1.8083
10.312 -6.8169999 -1.9758
10.632 -6.9225998 -1.9543
11.004 -6.9912 -1.9008
11.404 -6.9955001 -1.778
11.79 -7.0124002 -1.6708
12.045 -7.0967002 -1.6173
13.063 -6.9938998 -1.788
13.401 -7.0046 -1.837
13.798 -6.9886999 -1.7055
14.152 -7.0888 -1.6395
14.436 -7.1680002 -1.6098
18.254 -6.9920001 -1.7837
-2.0817001 -6.5100002 -1.7264
9.0833998 -6.4561 -1.9671
9.3905001 -6.5242 -1.8999
9.8016996 -6.5679998 -1.8519
10.239 -6.5748 -1.8424
10.716 -6.7690001 -1.9737
11.018 -6.7782001 -1.9507999
11.286 -6.7930002 -1.9798
11.816 -6.7680001 -1.8047
12.683 -6.5391998 -1.9562
12.99 -6.6132002 -1.8363
13.404 -6.5960002 -1.716
13.691 -6.6223998 -1.6425
18.268 -6.5995002 -1.793
-2.1066 -6.1842999 -1.7502
-1.9535 -6.1859999 -1.9431
8.6941004 -6.0879998 -1.9717
9.0082998 -6.1845002 -1.9172
9.3959999 -6.1918998 -1.7758
9.7370005 -6.2754998 -1.665
10.222 -6.2182999 -1.7916
12.383 -6.1205001 -1.9873
12.638 -6.1882 -1.9521
12.996 -6.2027001 -1.8483
13.414 -6.1845999 -1.6992
13.713 -6.1928 -1.6323
18.290001 -6.2030001 -1.7941999
18.409 -6.0496001 -1.9864
-2.1227 -5.8053999 -1.7722
-1.9633 -5.7985001 -1.9653
8.3246002 -5.6822 -1.9862
8.6146002 -5.7877002 -1.918
8.9954996 -5.7968001 -1.7834001
9.3179998 -5.8094001 -1.6535
10.192 -5.7965999 -1.8009
11.954 -5.6329999 -1.9816999
12.267 -5.7340002 -1.9464
12.601 -5.8058 -1.8671
12.997 -5.8298001 -1.7314
13.367 -5.9045 -1.636
18.309 -5.8123999 -1.7477
18.429001 -5.7749 -1.9478
-2.1352999 -5.3843999 -1.7877001
-1.969 -5.421 -1.9693
-1.574 -5.3629999 -1.9698
7.9860001 -5.2596002 -1.9964
8.2329998 -5.3772001 -1.9315
8.6009998 -5.3923998 -1.8223
8.9919996 -5.4025998 -1.6888
9.2392998 -5.5163002 -1.6131001
9.9770002 -5.2779999 -1.6478
10.118 -5.4110999 -1.8135
11.847 -5.3734999 -1.9168
12.21 -5.4145999 -1.8268
12.592 -5.415 -1.7014
12.853 -5.3895998 -1.6153001
18.311001 -5.3769002 -1.744
18.445 -5.4633002 -1.921
-2.1575999 -4.9952998 -1.7981
7.9519 -4.9484 -1.9893
8.2026997 -4.9903002 -1.8927
8.6013002 -5.0019002 -1.7567
8.9219999 -5.0109 -1.6475
9.9008999 -4.9584999 -1.7682
10.041 -5.0762 -1.9282
11.852 -5.0152998 -1.9575
12.187 -5.0054998 -1.8387001
12.6 -5.0088 -1.6816
12.843 -5.0974998 -1.6224999
18.205 -4.9949999 -1.8041
-2.1942 -4.5918002 -1.8029
7.8720999 -4.5785999 -1.9682
8.1991997 -4.6006999 -1.8666
8.5928001 -4.5875001 -1.6950999
8.8485003 -4.7266998 -1.6160001
9.8002996 -4.6037998 -1.8092999
10.006 -4.7329998 -1.9998
11.867 -4.6671 -1.9705
12.18 -4.5895 -1.9037
12.587 -4.5763001 -1.7125
12.843 -4.4362998 -1.6231
17.943001 -4.513 -1.6876
18.086 -4.6341 -1.8493
-2.2221 -4.1975999 -1.8150001
7.5337 -4.1210999 -1.9701999
7.8031001 -4.1908998 -1.9163001
8.2049999 -4.1956 -1.7778
8.5452995 -4.2241001 -1.6615
9.5860004 -4.1529999 -1.622
9.7208996 -4.1808 -1.8048
12.219 -4.1845999 -1.9423
12.611 -4.2035999 -1.8071001
12.965 -4.1693001 -1.6696
13.243 -4.0555 -1.6148
17.878 -4.1968999 -1.7927001
18.023001 -4.3392 -1.9585
-2.4196 -3.7557001 -1.6425
-2.2453001 -3.806 -1.8318
7.4979 -3.7776999 -1.9605
7.7983999 -3.7983999 -1.8466001
8.1899996 -3.8046 -1.7097
8.4467001 -3.8915 -1.6269
9.5780001 -3.7953999 -1.6517
9.7084999 -3.8038001 -1.8487999
11.959 -3.7657001 -1.9888
12.2 -3.8074999 -1.9298
12.595 -3.7997999 -1.79
12.994 -3.7743001 -1.6611
13.251 -3.8701 -1.6155
17.589001 -3.6363001 -1.6264
17.747999 -3.8152001 -1.8126
-2.4542999 -3.3675001 -1.6643
-2.2844 -3.4136 -1.8543
7.4110999 -3.3921001 -1.9411
7.8028998 -3.4012001 -1.7859
8.1472998 -3.4116001 -1.6592
9.1859999 -3.273 -1.6214
9.4014997 -3.3648 -1.6859
9.7068005 -3.3998001 -1.8499
11.896 -3.3473001 -1.9681
12.193 -3.3838999 -1.8881
12.604 -3.3970001 -1.7424999
12.946 -3.3999 -1.6335
16.221001 -3.3017001 -1.7715
16.618 -3.2744 -1.7694
17.018999 -3.257 -1.7003
17.441999 -3.3106 -1.7631
17.655001 -3.4707999 -1.8878
-2.8736999 -2.9256001 -1.7094001
-2.7000999 -2.9735 -1.8548
-2.2939999 -3.1930001 -1.9597
7.1303 -2.9373 -1.9751
7.4067998 -2.983 -1.8807
7.7995 -2.9962001 -1.7402
8.0906 -3.043 -1.6392
9.1387997 -2.9489999 -1.706
9.3576002 -3.0552001 -1.8006001
9.7128 -3.0992999 -1.8771
11.831 -2.9809 -1.9596
12.203 -2.9928999 -1.8622
12.601 -2.9909999 -1.727
12.891 -2.9933 -1.626
16.195999 -3.0033 -1.7962
16.736 -3.1930001 -1.9897
16.976 -3.1930001 -1.9548
-2.881 -2.5871999 -1.7186
-2.7397001 -2.6006999 -1.9136
7.0862999 -2.5806999 -1.9551001
7.4071002 -2.5962 -1.8125
7.7750001 -2.6180999 -1.6857001
9.1049004 -2.5954001 -1.7685
9.2292995 -2.6129999 -1.9651999
11.591 -2.5580001 -1.9998
11.801 -2.6027 -1.9231
12.197 -2.5974 -1.8177
12.598 -2.5987 -1.7076
12.843 -2.6436999 -1.619
16.221001 -2.5980999 -1.8025
-2.9191999 -2.1791999 -1.7359
-2.7418001 -2.2061 -1.938
7.0338998 -2.1896999 -1.9242001
7.3979998 -2.1919999 -1.7561001
7.6866999 -2.2167001 -1.6389
9.0548 -2.1926999 -1.7678
9.243 -2.1726999 -1.9576
11.596 -2.0480001 -1.9948
11.818 -2.1814001 -1.9133
12.2 -2.2079999 -1.7977999
12.581 -2.1937001 -1.679
12.806 -2.3196001 -1.6098
16.245001 -2.2014999 -1.8135999
-2.9456999 -1.789 -1.7582
-2.7597001 -1.8173 -1.9628
6.743 -1.6993999 -1.988
7.0079999 -1.793 -1.8922
7.3986001 -1.7974 -1.7115999
7.6336999 -1.8776 -1.6221
8.7910004 -1.663 -1.6098
9.0094004 -1.794 -1.7424001
9.2693005 -1.798 -1.9407001
11.567 -1.6774 -1.992
11.803 -1.796 -1.91
12.208 -1.8011 -1.7825
12.544 -1.829 -1.6614
16.259001 -1.8017 -1.8039
-2.9754 -1.3943 -1.7749
-2.773 -1.4503 -1.9734
6.6918998 -1.3887 -1.9565001
6.9994001 -1.3994 -1.8317
7.3463998 -1.4204 -1.6761
8.7659998 -1.3263 -1.6231
8.9969997 -1.3947999 -1.7838
9.2349997 -1.516 -1.9577
11.504 -1.3755 -1.9748
11.814 -1.4003 -1.857
12.205 -1.3918 -1.7387
12.486 -1.4086 -1.6398
16.267 -1.4069 -1.7979
-3.2360001 -0.97395998 -1.6504
-3.0782001 -1.0124 -1.8404
6.6408 -0.98721999 -1.9273
6.9993 -0.99733001 -1.7701
7.296 -1.0214 -1.6417
8.7205 -0.98582 -1.6583
8.9771996 -1.0139 -1.8407
11.173 -0.85628998 -1.9964
11.425 -0.97754002 -1.9293
11.817 -0.99985999 -1.8089
12.203 -0.98859 -1.6911
12.522 -1.0104001 -1.6178
16.280001 -1.0008 -1.8102
-3.2405 -0.57779998 -1.6552
-3.1043 -0.60403001 -1.8474
6.3546 -0.52296001 -1.9905
6.6041002 -0.59610999 -1.8861001
7.0001001 -0.59364998 -1.7208
7.2416 -0.65546 -1.6279
8.7013998 -0.59121001 -1.6636
8.9965 -0.59145999 -1.8464
9.2159996 -0.48295999 -1.9964
11.124 -0.56681001 -1.9717
11.382 -0.60365999 -1.8784
11.795 -0.58816999 -1.7606
12.173 -0.58477998 -1.6999
12.53 -0.64296001 -1.6098
16.295 -0.57691002 -1.8336999
-3.2432001 -0.18357 -1.6846
-3.1366999 -0.2051 -1.883
6.3292999 -0.1699 -1.97
6.5957999 -0.20057 -1.8601
6.9755998 -0.21021 -1.6789
7.2059999 -0.39296001 -1.6098
8.6990004 -0.22259 -1.6522
9.0078001 -0.19604 -1.8347
9.217 -0.14996 -1.9918
11.127 -0.20681 -1.9686
11.416 -0.20601 -1.8584
11.796 -0.22889 -1.7572
12.181 -0.18610001 -1.6766
12.496 -0.35295999 -1.6098
16.305 -0.16077 -1.7607
-3.2348001 0.21596 -1.6738
-3.1619999 0.19733 -1.8578
6.2937999 0.17921001 -1.9511
6.6069999 0.20137 -1.8224
6.9330001 0.19126999 -1.674
8.7400999 0.18086 -1.638
8.9989996 0.21379 -1.8066
9.2343998 0.23914 -1.9792
11.139 0.10351 -1.9668
11.393 0.16887 -1.8836
11.752 0.22060999 -1.7998
12.185 0.13336 -1.664
12.441 0.053706001 -1.6314
16.309999 0.20237 -1.7862
-3.2433 0.62987 -1.7156
-3.1712999 0.59149998 -1.9037
6.2739 0.61734003 -1.9399
6.5953002 0.59985 -1.7984999
6.9303002 0.59312999 -1.6490999
8.7621002 0.49926001 -1.6286
9.0024996 0.60887003 -1.7913001
9.2348003 0.5988 -1.9833
11.018 0.66728997 -1.9283
11.422 0.64629 -1.7920001
11.794 0.59957999 -1.669
16.318001 0.59423 -1.7995
-3.2864001 1.0132999 -1.7788
-3.184 0.98325002 -1.926
6.2365999 1.0147001 -1.9383
6.6106 0.99734002 -1.7638
6.9419999 1.0314 -1.6433001
7.276 1.187 -1.6397001
9.0426998 0.98983997 -1.7673
9.2462997 1.0217 -1.9651
10.748 0.93103999 -1.9958
11.038 0.91825998 -1.8858
11.412 1.0158 -1.7294
11.692 0.94428003 -1.6439
16.325001 1.0010999 -1.8123
-3.3427 1.3882999 -1.8262
-3.184 1.2970001 -1.9998
6.2165999 1.2735 -1.9539
6.6114001 1.2961 -1.8882999
7.0216999 1.3054 -1.8278
7.3926001 1.3457 -1.8092
7.7701998 1.3990999 -1.8604
8.2089005 1.4118 -1.8609
8.6101999 1.4025 -1.8150001
9.0158997 1.3771 -1.8072
9.2489004 1.3557 -1.9294
11.179 1.295 -1.8846999
11.441 1.301 -1.7243
11.696 1.237 -1.6098
15.896 1.497 -1.6198
16.240999 1.3533 -1.7729
16.421 1.5795 -1.9097
-3.4451001 1.7941999 -1.8135
9.1592999 1.9787 -1.8364
9.2360001 1.987 -1.9648
10.69 1.841 -1.7831
10.965 1.7628 -1.7171
11.287 1.7161 -1.6260999
16.372999 1.7902 -1.6677999
16.441 1.8299 -1.8887
-3.6169 2.3227999 -1.6426001
-3.5051999 2.201 -1.8224
5.9214001 2.3498001 -1.8788
6.2020998 2.3508999 -1.7604001
6.5105 2.3252001 -1.677
9.1091995 2.2270999 -1.7939
9.3774004 2.2249999 -1.9732
9.7874002 2.3162999 -1.9368
10.203 2.2995 -1.8961
10.608 2.2707 -1.7654999
10.886 2.2969999 -1.6214
16.382999 2.1726 -1.6609
16.441 2.1966 -1.8633
-3.6301999 2.6085999 -1.6862
-3.5366001 2.5332999 -1.8745
5.5577002 2.612 -1.9898
5.8315001 2.6147001 -1.8947999
6.1957002 2.5945001 -1.7326
6.4492998 2.5581999 -1.6248
9.0695 2.5890999 -1.795
9.4958 2.6282001 -1.9648
9.7967997 2.6108 -1.8688
10.201 2.6154001 -1.7476
10.541 2.5478001 -1.6864001
10.816 2.427 -1.6198
16.389 2.5822999 -1.648
16.451 2.6085999 -1.8413
-3.6684 3.0156 -1.7205
-3.5636001 3.0048001 -1.9176
5.5068002 3.0425999 -1.9631
5.8007998 3.0013001 -1.874
6.1829 3.0028 -1.7043999
6.421 2.832 -1.6098
9.0306997 2.9979999 -1.7934999
9.434 3.0215001 -1.9478
9.7937002 2.9900999 -1.837
10.198 2.9991 -1.7165999
10.474 2.8961999 -1.6206
16.528999 2.9967999 -1.7999001
-4.0286999 3.5337 -1.6784
-3.8390999 3.3829999 -1.8097
-3.5623 3.2553999 -1.9697
5.1760001 3.552 -1.9873
5.4129 3.4151001 -1.9442
5.8073001 3.3994999 -1.8051
6.1440001 3.4079001 -1.6578
9.0038004 3.3973 -1.8384
9.4184999 3.3951001 -1.903
9.7952003 3.4031999 -1.8075
10.155 3.3704 -1.6679
10.416 3.257 -1.6198
16.582001 3.3933001 -1.7407
-4.0503001 3.8162999 -1.7279
-3.9621 3.7774 -1.9086
5.1135998 3.8287001 -1.9694999
5.4035001 3.8018999 -1.8786
5.8105001 3.8043001 -1.7393
6.0798998 3.7605 -1.6454
8.7860003 3.9345 -1.6148
8.948 3.7994001 -1.853
9.4214001 3.7967 -1.8446
9.8114004 3.8144 -1.7445
10.09 3.7834001 -1.6558
16.386 3.9719999 -1.6397001
16.552999 3.8137 -1.7896
-4.0753002 4.2323999 -1.7522
-3.9670999 4.1353998 -1.9227999
5.0254002 4.2094998 -1.9436001
5.3980999 4.2038999 -1.8146
5.796 4.1861 -1.6795
6.0426998 4.0925999 -1.6174999
8.7792997 4.2451 -1.6436
8.9397001 4.1831002 -1.8887
9.4130001 4.1999002 -1.7989
9.7809 4.1805 -1.6724
10.07 4.0682998 -1.6248
16.282 4.2416 -1.7661
16.452 4.0959001 -1.9117
-4.4596 4.6773 -1.7321
-4.2494001 4.5381999 -1.8423001
4.6854 4.6212001 -1.9601001
5 4.6110001 -1.864
5.4029999 4.6019001 -1.7339
5.7251 4.5970001 -1.643
8.7615995 4.6265001 -1.7213
8.9729004 4.5647998 -1.8904001
9.3976002 4.6002998 -1.7495
9.6975002 4.5735998 -1.6449
15.936 4.7098999 -1.7101001
16.121 4.5651999 -1.8384
-4.5008001 5.0276999 -1.7837
-4.3839998 4.9253998 -1.9664
4.3660002 5.1269999 -1.9910001
4.6273999 5.0110998 -1.9421999
5.0240998 5.0078001 -1.7872
5.4007001 4.9875998 -1.665
5.6698999 4.947 -1.6167001
8.7244997 4.9987998 -1.7527
9.0233002 4.9910002 -1.807
9.3781996 4.9843001 -1.6769
9.6339998 4.8470001 -1.6178
15.873 4.9007001 -1.8316
16.025999 4.8304 -1.9730999
-8.1218996 5.5662999 -1.6382999
-7.8614998 5.4882998 -1.6123
-7.5040002 5.3569999 -1.6098
-4.5015001 5.3969998 -1.801
4.2679 5.4547 -1.9754
4.5939002 5.3982 -1.8873
5.0029001 5.3965998 -1.7562
5.3688002 5.3768001 -1.6429
8.6739998 5.4122 -1.6887
8.9891996 5.3794999 -1.6648999
9.3408003 5.2804999 -1.6377
-8.9245996 5.9018998 -1.72
-8.592 5.8589001 -1.696
-8.2243004 5.7505002 -1.6314
-7.994 5.717 -1.6098
-4.4756999 5.7940998 -1.7806
-4.3940001 5.9703999 -1.9597
3.9268 5.855 -1.9893
4.1925001 5.7932 -1.9332
4.6062002 5.7989001 -1.7901
4.9836998 5.7905002 -1.6713001
5.2735 5.6595001 -1.6160001
8.6478996 5.7936001 -1.638
8.816 5.6370001 -1.6198
16.115 5.9179001 -1.7624
-8.9308004 6.2140999 -1.6824
-8.6175003 6.1813002 -1.6524
-8.3673 6.052 -1.6214
-4.4857998 6.1971998 -1.7492
-4.382 6.1841998 -1.9466
3.5510001 6.3470001 -1.9881001
3.823 6.2161002 -1.9444
4.2129002 6.2080002 -1.8152
4.6041999 6.2084999 -1.6901
4.8997002 6.1364002 -1.6298
8.6082001 6.2231002 -1.6539
16.174 6.1988001 -1.8092999
23.004999 6.2894001 -1.9886
-8.9333 6.5841999 -1.6236
-8.7571001 6.5792999 -1.6136
-4.8769999 6.7694998 -1.7318
-4.5767002 6.5921001 -1.8268
-4.3807001 6.427 -1.9664
3.4925001 6.6234002 -1.9704
3.7969999 6.6054001 -1.8771
4.1992998 6.6128998 -1.749
4.5608001 6.6139002 -1.6508
8.6210003 6.5661998 -1.6431
8.9560003 6.6570001 -1.6098
16.259001 6.5725999 -1.739
22.983 6.6252999 -1.9617
-9.0079002 6.9587002 -1.6192
-5.704 7.1887002 -1.6581
-5.4136 7.1543002 -1.6638
-5.0107002 7.0040998 -1.7851
-4.5618 7.1687002 -1.8942
-4.3940001 7.1669998 -1.9897
3.1589999 7.125 -1.9868
3.4166 7.0222001 -1.933
3.8020999 6.9952998 -1.8135999
4.1977 6.9970002 -1.6986001
4.5219998 6.9628 -1.6314
8.5979996 6.8889999 -1.6138
16.332001 7.0264001 -1.7276
22.990999 7.02 -1.9395
-5.7612 7.4130001 -1.6707
-5.3945999 7.4004998 -1.6758
-5.0086002 7.3888998 -1.7747999
-4.5706 7.4091001 -1.8537
-4.3940001 7.2670002 -1.9898
3.0843999 7.4345002 -1.9703
3.4021001 7.3997998 -1.9055001
3.8036001 7.4116998 -1.7875
4.1856999 7.3841 -1.6612
4.4485002 7.237 -1.6148
16.384001 7.4433999 -1.7752
16.436001 7.5770001 -1.6296999
22.723 7.4387999 -1.9739
22.999001 7.3934999 -1.8856
23.205999 7.5669999 -1.7798001
-9.2264996 7.9695001 -1.6598001
-9.0102997 7.8965998 -1.6969
-8.7021999 7.9233999 -1.7457
-8.2220001 7.9850001 -1.6777
-7.3144999 7.8990002 -1.6318001
-6.914 7.9531999 -1.6559
-6.5805001 7.9073 -1.7025
-6.3346 7.9081998 -1.7456
-5.7368002 7.7930999 -1.8336
-5.4417 7.6775999 -1.7656
-4.9995999 7.7175999 -1.8059
-4.6715002 7.6294999 -1.9447
2.7327001 7.8799 -1.9864
3.0044 7.8123999 -1.9291
3.4031999 7.8018999 -1.8381
3.8060999 7.8081002 -1.7408
4.1504998 7.7593002 -1.6411999
16.386 7.631 -1.8118
16.445999 7.8887 -1.7381001
22.656 7.8028998 -1.9507
22.985001 7.803 -1.8365
23.231001 7.8161001 -1.7498
-9.7525997 8.3520002 -1.7115999
-9.4090004 8.1681995 -1.8223
-8.9567003 8.1343002 -1.8985
-8.5832005 8.1679001 -1.852
-8.2522001 8.1766005 -1.7757
-7.8182001 8.1127996 -1.649
-7.3990002 8.1007996 -1.7138
-7.0320001 8.1094999 -1.8055
-6.6118002 8.1816998 -1.9051
-6.2607002 8.0769997 -1.8309
-5.9306998 8.0437002 -1.8297
2.3617001 8.3485003 -1.994
2.6242001 8.2269001 -1.9585
2.9930999 8.1977997 -1.8745
3.4112999 8.2004004 -1.7825
3.8076999 8.1941996 -1.6872
4.0489998 8.1920004 -1.6188
16.445999 8.0369997 -1.7797
22.375999 8.3570004 -1.9948
22.6 8.2160997 -1.9385
22.990999 8.2079 -1.8059
23.247 8.2154999 -1.7201999
-10.639 8.7270002 -1.6348
-10.136 8.7097998 -1.6698
-9.8429003 8.5815001 -1.8279001
-9.3739996 8.4569998 -1.9922
-9.0865002 8.467 -1.9248
2.3541 8.5663996 -1.9910001
2.6112001 8.6069002 -1.9138
2.9960001 8.5999002 -1.8375
3.4026999 8.6055002 -1.7228
3.7493 8.5559998 -1.6411
16.52 8.6403999 -1.6542
22.351 8.6282997 -1.9831001
22.608999 8.5978003 -1.8977
23.016001 8.599 -1.7526
23.277 8.6072998 -1.6542
-10.538 9.1433001 -1.7498
-10.252 8.9727001 -1.8329
2.6341 8.9761 -1.9152
3.0028999 9.0087996 -1.784
3.375 8.9895 -1.6633
3.6059999 8.8669996 -1.6098
16.516001 9.0437002 -1.8131
22.292999 9.0080004 -1.9627
22.598 9.0010996 -1.8594
23.007 8.9797001 -1.7194999
23.259001 9.0017996 -1.6284
-13.694 9.552 -1.8298
-13.33 9.5019999 -1.6698
-13.008 9.5654001 -1.7889
-12.619 9.5278997 -1.7606
-12.296 9.5030003 -1.7638
-11.821 9.4893999 -1.7422
-11.376 9.4012003 -1.7921
-11.004 9.3352003 -1.8335
-10.712 9.3473997 -1.918
-10.299 9.2320004 -1.8098
2.3405001 9.3924999 -1.9752001
2.5987 9.3207998 -1.8848
3.0049 9.2982998 -1.7326
3.3413 9.2844 -1.6374
22.252001 9.4102001 -1.9507
22.601999 9.4014997 -1.8285
23.014 9.3550997 -1.6863
23.226 9.3586998 -1.6164
-14.064 9.6370001 -1.9597
-13.772 9.8402996 -1.7594
-13.398 9.7479 -1.8825001
-13.034 9.7110004 -1.9372
-12.67 9.6547003 -1.928
-12.275 9.7969999 -1.9698
-11.902 9.6542997 -1.9461
-11.546 9.6269999 -1.9778
16.396 9.6569996 -1.9597
22.246 9.6187 -1.9214
-14.059 10.327 -1.7546999
-13.834 10.285 -1.882
-13.374 10.027 -1.6998
-14.048 10.486 -1.7798001
-13.914 10.502 -1.875
-13.492 10.737 -1.8473001
-2.99 -8.8683004 -1.3211
-1.2582999 -8.8100996 -1.4683
-0.96401 -8.8646002 -1.3406
-0.59735 -8.8270998 -1.4421999
-0.16782001 -8.8653002 -1.3964
0.23514999 -8.9462996 -1.3814
0.59698999 -9.0139999 -1.4663
0.96961999 -9.0495996 -1.4031
1.4007 -9.0500002 -1.2733001
1.8437001 -8.9470997 -1.3661
2.066 -8.9580002 -1.2197
2.536 -8.8129997 -1.3796999
2.901 -8.8479996 -1.2298
-3.0415001 -8.5959997 -1.4076
-2.3139999 -8.7629995 -1.2097
-1.8940001 -8.7209997 -1.5217
-1.3214999 -8.7605 -1.5623
-0.71401 -8.7695999 -1.5098
-0.39401001 -8.7930002 -1.5997
1.846 -8.6379995 -1.576
2.2047 -8.6063995 -1.5398999
2.6064 -8.6097002 -1.4423
2.997 -8.5703001 -1.3943
3.4164 -8.5452003 -1.3602
3.7474 -8.5253 -1.3307
4.1866999 -8.4932003 -1.2768
4.586 -8.4733 -1.2812999
4.9698 -8.4214001 -1.279
5.3852 -8.4263 -1.2523
5.7886 -8.4514999 -1.2627
6.1817999 -8.4314003 -1.2666
6.526 -8.415 -1.2578
7.0321999 -8.4191999 -1.2309999
7.2059999 -8.4429998 -1.2198
-3.0688 -8.2363997 -1.4218
2.6819999 -8.3642998 -1.5604
3.0057001 -8.3059998 -1.5506999
3.4033999 -8.3119001 -1.5316
3.7909999 -8.3009996 -1.4892
4.2002001 -8.2802 -1.4834
4.585 -8.3147001 -1.483
5.0121999 -8.3058996 -1.4983
5.3888998 -8.3324003 -1.4687001
5.8225999 -8.3309002 -1.457
6.2096 -8.2976999 -1.4643
6.6142998 -8.2725 -1.4384
6.9846001 -8.2914 -1.428
12.704 -8.0558996 -1.5803
13.01 -8.0656996 -1.5481
13.354 -8.066 -1.5121
15.144 -8.0830002 -1.5888
15.399 -8.1089001 -1.5318
15.815 -8.1016998 -1.4614
16.208 -8.1134005 -1.3766
16.471001 -8.1013002 -1.2714
18.274 -8.1560001 -1.4262
12.356 -7.6329999 -1.5947
12.624 -7.7858 -1.559
13.011 -7.7891998 -1.5039001
13.299 -7.8780999 -1.5029
15.124 -7.8439002 -1.5788
15.409 -7.8063998 -1.5007
15.822 -7.8116002 -1.4151
16.197001 -7.7950001 -1.3274
16.462 -7.7921 -1.2485
18.238001 -7.7687998 -1.3944
12.274 -7.3638 -1.5638
12.601 -7.4039001 -1.5044
12.975 -7.4057002 -1.469
14.69 -7.2839999 -1.5648
15.032 -7.3800998 -1.5035
15.391 -7.4085002 -1.4421999
15.798 -7.4143 -1.3509001
16.122999 -7.5309 -1.3071001
17.915001 -7.2926002 -1.3937
18.153 -7.4243002 -1.4483
-2.2342999 -6.9070001 -1.3058
11.962 -6.875 -1.5838
12.229 -6.9980998 -1.5408
12.61 -6.9984002 -1.4402
12.893 -7.0304999 -1.5021
14.241 -6.9418998 -1.5661
14.564 -7.0360999 -1.5197999
15.023 -6.9657998 -1.4087
15.394 -6.9912 -1.3406
15.722 -7.0207 -1.2852
17.957001 -7.1093001 -1.3713
18.068001 -6.9794002 -1.4672
-2.2133999 -6.5983 -1.4038
12.287 -6.7754998 -1.4935
12.586 -6.7326002 -1.4733
12.848 -6.7596002 -1.5431
13.891 -6.5583 -1.5669
14.205 -6.5854998 -1.4836
14.561 -6.5886998 -1.4270999
15.033 -6.5872998 -1.345
15.39 -6.6047001 -1.3182
15.717 -6.6129999 -1.2481
18.139999 -6.6039 -1.4053
-2.424 -6.0229998 -1.2197
-2.2715001 -6.2028999 -1.3958
9.8629999 -6.1461 -1.5531
10.081 -6.1485 -1.5379
13.897 -6.1824999 -1.5816
14.21 -6.1961999 -1.4985
14.582 -6.2027998 -1.3859
14.971 -6.2094998 -1.2952
15.357 -6.303 -1.2539999
15.629 -6.3796 -1.2097
18.139999 -6.1985002 -1.4102
-2.4459 -5.7765002 -1.2575999
-2.3171 -5.8109002 -1.446
9.4865999 -5.7407999 -1.5697
9.8037004 -5.7996998 -1.497
10.058 -5.8098001 -1.5341001
13.088 -5.6292 -1.5848
13.425 -5.7286 -1.5576
13.795 -5.7951002 -1.4865
14.206 -5.7972999 -1.4025
14.623 -5.7873998 -1.2992001
14.897 -5.8259001 -1.2302999
18.143999 -5.7972002 -1.419
-2.4881001 -5.3849001 -1.325
-2.3387001 -5.4116998 -1.5173
9.1859999 -5.2962999 -1.5964
9.4186001 -5.3906999 -1.5289
9.8336 -5.3951001 -1.4754
10.029 -5.5574002 -1.5609
13.023 -5.3972998 -1.5443
13.414 -5.401 -1.452
13.808 -5.4000001 -1.3504
14.19 -5.4000001 -1.2972
14.566 -5.4748001 -1.2435
18.127001 -5.3947001 -1.4165
-2.5316999 -4.9965 -1.3516999
-2.3485999 -5.0250001 -1.5539
9.1111002 -4.9615998 -1.5692
9.4055996 -4.9917002 -1.4847
9.7299004 -5.0254002 -1.5061001
12.771 -4.8330002 -1.5898
13.017 -4.9913001 -1.5424
13.405 -5.0053 -1.4014
13.787 -5.0063 -1.2761
14.056 -5.1680002 -1.2414
17.964001 -4.9113998 -1.3793
18.048 -5.0805001 -1.4646
-2.5366001 -4.6044998 -1.3662
-2.3662 -4.6167002 -1.5623
8.7959995 -4.473 -1.5997
9.0221996 -4.5970998 -1.5489
9.4260998 -4.5853 -1.4722
9.6306 -4.6999002 -1.5651
12.768 -4.7091999 -1.5898
13.027 -4.5900002 -1.5194
13.398 -4.5911999 -1.4066
13.753 -4.5931001 -1.2742
17.854 -4.5985999 -1.4177001
-2.5418999 -4.1873002 -1.3851
-2.3815 -4.2546 -1.5739
8.7292004 -4.1521001 -1.5742
9.0094995 -4.197 -1.5006
9.4014997 -4.2031002 -1.4779
13.127 -4.2705002 -1.5666
13.42 -4.2073998 -1.4725
13.795 -4.2063999 -1.3242
14.086 -4.1090002 -1.2458
17.719 -4.1879001 -1.4137
-2.5651 -3.8052001 -1.3925
8.3809996 -3.618 -1.5947
8.6230001 -3.7844999 -1.5484999
9.0043001 -3.7879 -1.447
9.3982 -3.7945001 -1.5099
13.146 -3.6029999 -1.5997
13.422 -3.8031001 -1.5453
13.795 -3.8097 -1.4061
14.188 -3.7843001 -1.2678
14.413 -3.6830001 -1.2164
16.076 -3.6229999 -1.2783
16.597 -3.6052001 -1.2131
17.555 -3.7858 -1.3889
17.635 -3.9107001 -1.5536
-3.3934 -3.3994 -1.2746
-3.0325 -3.2744999 -1.2268
-2.6113 -3.4037001 -1.3974
8.3357 -3.3638999 -1.5694
8.6027002 -3.3966 -1.4874001
9.0038004 -3.4103 -1.4797
9.4108 -3.5334001 -1.5726
13.124 -3.3799 -1.585
13.406 -3.3863001 -1.4963
13.809 -3.3978 -1.3767999
14.157 -3.4133999 -1.2638
16.142 -3.4114001 -1.4067
16.603001 -3.4672999 -1.4115
17.004 -3.4361 -1.3892
17.384001 -3.4612999 -1.4101
-3.2114999 -2.8705001 -1.2223001
-3.0067 -2.9382999 -1.4442
-2.7272999 -3.1930001 -1.2964
8.2781 -2.9719 -1.548
8.5992002 -2.9920001 -1.4527
8.9434996 -3.0122001 -1.5112
13.089 -2.9833 -1.5616
13.397 -2.9751 -1.4513
13.795 -3.0162001 -1.3351001
14.148 -3.0076001 -1.2442
16.089001 -2.9995999 -1.4107
-3.2398 -2.5655 -1.2607
-3.0720999 -2.6115 -1.4507999
7.9535999 -2.5311999 -1.5839
8.1963997 -2.6001 -1.507
8.6108999 -2.5948999 -1.4057
8.9201002 -2.6082001 -1.5151
13.038 -2.5873001 -1.5377001
13.384 -2.6045001 -1.426
13.807 -2.5897999 -1.2982
14.116 -2.6343 -1.2298
16.108999 -2.5946 -1.4091001
-3.3022001 -2.1615 -1.3348
-3.1143 -2.2221 -1.5175
7.8855 -2.1849 -1.5573
8.2076998 -2.2032001 -1.4455
8.6049995 -2.1919 -1.3732001
8.8740997 -2.2105 -1.5246
12.781 -2.0804999 -1.5972
13.002 -2.1846001 -1.513
13.409 -2.1947999 -1.3822
13.772 -2.2191999 -1.2579
14.006 -2.3629999 -1.2097
16.129 -2.1921999 -1.4194
-3.3452001 -1.7939 -1.3704
-3.1429 -1.8157001 -1.5589
7.8292999 -1.7916 -1.533
8.2039003 -1.7972 -1.3894
8.6195002 -1.7953 -1.399
8.8233004 -1.8993 -1.567
12.731 -1.767 -1.5778
12.987 -1.8039 -1.4887
13.394 -1.8089 -1.3530999
13.702 -1.8022 -1.2411
16.141001 -1.7996 -1.4138
-3.3708 -1.3957 -1.4059
-3.1754 -1.4194 -1.5912
7.5341001 -1.3461 -1.5791
7.8007998 -1.3976001 -1.4819
8.1977997 -1.4003 -1.3578
8.6011 -1.3994 -1.4741
8.8184996 -1.2805001 -1.5947
12.685 -1.3805 -1.5711
12.996 -1.4009 -1.4895999
13.414 -1.4064 -1.3703001
13.754 -1.3607 -1.2611001
16.156 -1.3983999 -1.41
-3.4003 -0.99848002 -1.4082
-3.184 -1.173 -1.5598
7.4879999 -0.97684997 -1.5612
7.8063998 -0.99448001 -1.4181
8.2126999 -0.99068999 -1.295
8.5236998 -1.0012 -1.4773999
12.683 -0.97775 -1.5802
13.001 -1.0026 -1.4974
13.416 -1.0124 -1.3943
13.756 -1.0896 -1.2790999
14.036 -1.0596 -1.2298
16.181999 -0.99523997 -1.4215
-3.4124 -0.60257 -1.4059
7.1960001 -0.42296001 -1.5997
7.4282999 -0.58405 -1.535
7.8049998 -0.60677999 -1.3943
8.2174997 -0.59574997 -1.3444999
8.5075998 -0.60196 -1.5379
12.391 -0.43796 -1.5997
12.63 -0.60184997 -1.5782
13.009 -0.63652998 -1.5151
13.399 -0.60376 -1.3995
13.79 -0.60513002 -1.2884001
14.006 -0.55295998 -1.2097
16.184999 -0.59096003 -1.3928
-3.4038 -0.20182 -1.4072
7.1476002 -0.12507001 -1.5908
7.3972998 -0.19295999 -1.5058
7.7996001 -0.19419999 -1.3595001
8.2006998 -0.20553 -1.3852
8.5031996 -0.18212999 -1.5441
12.341 -0.17546 -1.5997
12.618 -0.22751001 -1.5523
12.977 -0.26394001 -1.498
13.428 -0.32589999 -1.3909
13.754 -0.28178 -1.2697999
14.041 -0.31795999 -1.2097
16.198 -0.21151 -1.4183
-3.3698001 0.20886999 -1.4145
7.1348 0.20674001 -1.5776
7.4045 0.20533 -1.4715
7.7936001 0.19541 -1.3207
8.2018995 0.20291001 -1.3428
8.5381002 0.20615 -1.5272
12.265 0.27893999 -1.5583
12.579 0.27516001 -1.4604
13.052 0.25918001 -1.3105
13.262 0.20182 -1.2437
16.200001 0.21744999 -1.4022
-3.3952 0.60408002 -1.3966
7.1129999 0.58521998 -1.5773
7.4057999 0.61882001 -1.4471999
7.8018999 0.60108 -1.2726001
8.2002001 0.60034001 -1.3211
8.5823002 0.61361003 -1.5037
11.954 0.70165002 -1.5897
12.203 0.61478001 -1.5225
12.583 0.61642998 -1.3942
13.022 0.60385001 -1.2755001
13.254 0.47431001 -1.227
16.205999 0.60440999 -1.3940001
-3.4068 0.99899 -1.4007
7.0913 0.97257 -1.5714999
7.3913999 0.97737998 -1.455
7.7747998 1.0001 -1.3315001
8.2121 0.96964997 -1.3174
8.6125002 0.97459 -1.4603
8.8467999 1.0547 -1.5736001
11.891 1.0499001 -1.5549001
12.208 1.0172 -1.4447
12.592 1.027 -1.309
12.991 0.97422999 -1.2305
13.239 0.85703999 -1.2214
16.221001 0.98451 -1.4302
-3.4535999 1.402 -1.3985
7.5359998 1.207 -1.5997
7.8410001 1.217 -1.5997
8.8785 1.232 -1.5872
11.496 1.587 -1.5898
11.796 1.3383 -1.5506001
12.234 1.3336 -1.3878
12.615 1.2866 -1.2878
12.895 1.2908 -1.221
15.579 1.527 -1.2398
15.84 1.4488 -1.3695
16.122999 1.2953 -1.5
-3.6240001 1.9145 -1.2448
-3.5313001 1.7875 -1.4253
11.186 1.987 -1.5898
11.438 1.8315001 -1.5511
11.801 1.729 -1.3922
12.188 1.6637 -1.2789
16.313 1.836 -1.4033
-3.6517 2.2300999 -1.3788
-3.5764999 2.0875001 -1.5143
6.632 2.385 -1.5658
7.0609999 2.3536999 -1.3681
7.3204002 2.3436999 -1.2642
8.7216997 2.2774 -1.2634
8.9146996 2.2425001 -1.4635
11.054 2.3145001 -1.5556
11.407 2.2827001 -1.4413
11.785 2.2563 -1.321
12.156 2.2107 -1.2634
16.320999 2.2012 -1.4239
-3.7297001 2.609 -1.4026999
6.6311998 2.6201 -1.5283999
7.0124998 2.5976 -1.3648
7.3109002 2.5906999 -1.2406
8.7503004 2.6150999 -1.2743
8.8867998 2.6008999 -1.4768
10.709 2.6791999 -1.5646
10.982 2.6013999 -1.5003
11.411 2.5992 -1.3395
11.683 2.5668001 -1.2503
16.318001 2.5969999 -1.4026999
16.406 2.7620001 -1.5947
-4.0619998 3.1336999 -1.2818
-3.8285 2.9984 -1.4183
6.3759999 3.0769999 -1.5864
6.6018 3.0032001 -1.4871
7.0012002 2.9974 -1.3277
7.2392998 2.9754 -1.2223001
8.7368002 2.9999001 -1.2977
8.8782997 3.0044 -1.4915
10.64 3.0195999 -1.5288
10.998 2.9927001 -1.4262
11.395 2.9898 -1.3001
11.668 2.8994999 -1.2189
16.322001 2.9837 -1.3743
16.452 3.0513999 -1.5556999
-4.0948 3.4042001 -1.395
-3.9322 3.2476001 -1.5333
6.3364 3.4108 -1.5671999
6.6041002 3.4010999 -1.4342
6.9605999 3.3864 -1.2905
8.7327995 3.4166999 -1.3242
8.8530998 3.3619001 -1.5179
10.29 3.5039999 -1.5686001
10.609 3.4140999 -1.4783
10.996 3.4105999 -1.35
11.359 3.3859 -1.2460001
16.337999 3.375 -1.2898
16.482 3.4245999 -1.4732
-4.1436 3.8106 -1.4081
6.2680001 3.8175001 -1.5451
6.5984998 3.8094001 -1.3868001
6.9001002 3.7691 -1.2467
8.7079 3.8046999 -1.3882
8.8140001 3.665 -1.5618
10.291 3.8011999 -1.5367
10.605 3.8039999 -1.4134001
10.991 3.8089001 -1.3049001
11.281 3.7623999 -1.2328
16.292999 3.8552999 -1.3526
16.461 3.7219 -1.4979
-4.4439998 4.3379998 -1.3163
-4.2413998 4.1817999 -1.4296
5.9615002 4.2937002 -1.5942
6.2133002 4.2062001 -1.5172
6.6009002 4.2140002 -1.3356
6.8287001 4.1890001 -1.2204
8.6742001 4.1985002 -1.4062001
9.9478998 4.2904 -1.5845
10.205 4.2248998 -1.5213
10.603 4.1831002 -1.3569
10.977 4.1950998 -1.2543
11.231 4.052 -1.2097
15.931 4.3277998 -1.2909
16.139999 4.1694999 -1.4305
-4.5608001 4.6023998 -1.4007
-4.3464999 4.4369998 -1.5647
5.9215999 4.6265001 -1.5749
6.1991 4.6051002 -1.4793
6.5836 4.5893002 -1.3044
6.8260002 4.4369998 -1.2148
8.6182003 4.5969 -1.4057
9.8928003 4.6339002 -1.5605
10.212 4.5964999 -1.4421999
10.605 4.5925999 -1.2974
10.864 4.5342002 -1.2236
15.596 4.7904 -1.2598
15.794 4.6122999 -1.4007
16.030001 4.4404001 -1.5509
-6.4872999 5.1543999 -1.3803999
-6.1687002 5.1238999 -1.3729
-5.8098001 5.0703001 -1.3098
-5.4608998 5.0342002 -1.2429
-4.8039999 5.1230001 -1.2237999
-4.7049999 5.0426002 -1.4196
5.5893002 4.987 -1.5997
5.8340998 5.0155001 -1.5591
6.1977 4.9995999 -1.4374
6.5546999 4.9871998 -1.2742
8.5607996 4.9987998 -1.3924
8.8959999 5.0830002 -1.5658
9.5527 5.0977001 -1.5871
9.8080997 5.0085001 -1.5151
10.204 4.9981999 -1.3633
10.566 4.9712 -1.2592
15.586 4.8309999 -1.3098
15.681 4.8455 -1.4892
-8.5684996 5.5650001 -1.2308
-8.1990004 5.4885001 -1.3506
-7.7912002 5.4572001 -1.4865
-7.3957 5.4710002 -1.5386
-6.9980001 5.4446998 -1.4450999
-6.5995002 5.4013 -1.4174
-6.2009001 5.4082999 -1.3361
-5.8365998 5.3843002 -1.2510999
-5.5565 5.2220001 -1.2198
-4.8123002 5.3237 -1.2331001
-4.6926999 5.3996 -1.4218
5.5377998 5.4865999 -1.5798
5.8004999 5.4015002 -1.494
6.1977 5.4088001 -1.3529
6.4921999 5.3734999 -1.2445
8.5242004 5.4000001 -1.3906
9.1302996 5.4998999 -1.5812
9.4336996 5.4555001 -1.557
9.7985001 5.3955998 -1.4446
10.167 5.3807001 -1.3018
10.461 5.2270002 -1.2097
-9.0253 5.8329 -1.3428
-8.6100998 5.6760998 -1.2673
-8.1920996 5.8415999 -1.5338
-7.7895999 5.8051 -1.5524
-7.3992 5.809 -1.5002
-7.0093002 5.8006001 -1.413
-6.6002998 5.7965999 -1.3389
-6.2298002 5.8031998 -1.258
-5.9622998 5.6587 -1.2248
-4.8039999 5.947 -1.2097
-4.6666999 5.8088999 -1.4089
5.1615 5.9115 -1.592
5.4184999 5.8232999 -1.5396
5.7921 5.7886 -1.4306
6.1956 5.7958999 -1.2911
6.4359999 5.6550002 -1.2237999
8.3621998 5.8989 -1.2497
8.5109997 5.8165002 -1.4269
9.0101995 5.7972999 -1.561
9.3968 5.8032999 -1.4887
9.8080997 5.8037 -1.3212
10.098 5.7558999 -1.2431999
16.113001 5.8808999 -1.4253
-9.0521002 6.2035999 -1.3974
-8.4792995 6.3397002 -1.5891
-8.1952 6.2119002 -1.5519
-7.7996001 6.2129998 -1.4946001
-7.4038 6.2047 -1.4527
-6.9995999 6.2017999 -1.3696001
-6.6076999 6.1810999 -1.2604001
-6.2817001 6.0732002 -1.2144001
-4.6785002 6.2003002 -1.409
5.0489998 6.2515001 -1.5736001
5.4064999 6.2013001 -1.4848
5.8028998 6.2014999 -1.3572
6.1338 6.1578999 -1.2460999
8.3397999 6.2265 -1.2905
8.4989996 6.1798 -1.4935
9.0291004 6.2058001 -1.5395
9.4089003 6.2021999 -1.4064
9.7585001 6.2027001 -1.2661
16.17 6.1963 -1.4453
-9.0679998 6.6107998 -1.4224
-8.5721998 6.6057 -1.5637
-8.198 6.6174002 -1.4908
-7.8016 6.6005998 -1.4534
-7.4015999 6.6104999 -1.4197
-7.0002999 6.6005001 -1.3199
-6.6794 6.5946999 -1.2362
-5.2340002 6.7969999 -1.2198
-4.9576001 6.7276001 -1.3298
-4.6875 6.5426998 -1.4069999
4.7575002 6.5865002 -1.5888
5.0001001 6.5983 -1.5404
5.4049001 6.6047001 -1.4143
5.8059001 6.5904999 -1.2927001
6.0686002 6.5279002 -1.2241
8.3493996 6.6062002 -1.2774
8.5003996 6.6279001 -1.4845001
9.0366001 6.6141 -1.4985
9.3928003 6.5935001 -1.3578
9.7032003 6.5713 -1.2522
16.25 6.6051998 -1.4147
-9.0342999 7.0160999 -1.4599
-8.5921001 7.0072999 -1.5283
-8.2061996 6.9970002 -1.4414001
-7.7969999 7.0084 -1.3862
-7.3961 7.0075002 -1.3493
-7.0077 6.9843998 -1.2686
-6.6085 7.0732999 -1.2398
-6.191 7.1129999 -1.3038
-5.8077998 7.0619998 -1.3032
-5.3586001 6.9640999 -1.3674001
-5.1452999 6.8789001 -1.4685
4.7027001 7.0510998 -1.5756
4.9917998 7.0033002 -1.5135
5.3951998 7.0068002 -1.392
5.7721 6.9924002 -1.2539999
8.3613005 6.9877 -1.2638
8.5368004 7.0134001 -1.4712
9.0176001 7.0159998 -1.4568
9.4091997 6.9954 -1.3238
9.6529999 6.9714999 -1.2273
16.33 7.0079002 -1.4263
-9.21 7.513 -1.2418
-9.0479002 7.3899999 -1.4529999
-8.5949001 7.4026999 -1.4613
-8.2062998 7.4116998 -1.3613
-7.7944002 7.4078002 -1.2706
-7.4345999 7.3687 -1.2395999
-7.1715002 7.2445002 -1.2122
-6.5416002 7.3081002 -1.2546
-6.1623001 7.3888998 -1.3221
-5.9471998 7.3855 -1.5132
-5.4439998 7.5619998 -1.5997
-5.1139998 7.2069998 -1.5997
4.3660002 7.4833002 -1.5947
4.6071 7.4168 -1.5434
5.0077 7.3930001 -1.4547
5.3987999 7.395 -1.3380001
5.7378001 7.3786998 -1.2361
8.3781996 7.3720002 -1.2392
8.5485001 7.4049001 -1.4437
8.9917002 7.4007001 -1.4459
9.3945999 7.3901 -1.2988
9.625 7.3520002 -1.2187999
16.379999 7.3388 -1.3864
16.416 7.5300999 -1.4428999
-9.6450996 7.9582 -1.262
-9.3270998 7.9040999 -1.3660001
-9.0600996 7.7247 -1.4661
-8.6245003 7.7042999 -1.4784
-8.1757002 7.8091998 -1.4311
-7.8204999 7.7772002 -1.4409
-7.4361 7.8541002 -1.5125999
-7.0165 7.8028002 -1.4519
-6.6248002 7.704 -1.3459001
-6.2926998 7.6777 -1.4871
-5.4640002 7.6069999 -1.5898
4.3021998 7.8726001 -1.5798
4.6012998 7.8052001 -1.5146
4.9955001 7.7934999 -1.392
5.4054999 7.7943001 -1.2776
5.6666999 7.7083998 -1.2184
8.3959999 7.7195001 -1.2223001
8.5686998 7.8126001 -1.4057
9.0066996 7.7804999 -1.3941
9.3663998 7.7993999 -1.2582999
16.445 7.8000002 -1.3925
-10.419 8.3219995 -1.2148
-10.143 8.3250999 -1.3036
-9.7862997 8.1716003 -1.3493
-9.4809999 8.0710001 -1.4874001
-8.0340004 8.0620003 -1.5997
-7.8965001 8.092 -1.5747
-7.4914999 8.0319996 -1.5872
-7.0040002 8.0220003 -1.5348001
4.2388 8.2030001 -1.5548
4.5977001 8.1993999 -1.4492
5.0028 8.1987 -1.3352
5.3179998 8.1316004 -1.2417001
8.5668001 8.1843004 -1.3655
9.0093002 8.2108002 -1.3435
9.3289003 8.1789999 -1.2512
16.483 8.1943998 -1.3819
-10.547 8.6295004 -1.3573
-10.238 8.5704002 -1.5136
-9.9012003 8.4954004 -1.5692
3.8810999 8.6693001 -1.5804
4.1996999 8.5899 -1.5038
4.5964999 8.5936003 -1.3703001
4.9840002 8.5762997 -1.2618001
5.23 8.4969997 -1.2218
8.5969 8.5932999 -1.3482
9.0015001 8.6135998 -1.325
9.3168001 8.5824003 -1.2546999
16.513 8.6084995 -1.4212
-12.884 9.1695004 -1.2223001
-12.663 9.1399002 -1.2697999
-12.227 9.1882 -1.3796999
-11.746 9.1169996 -1.2448
-11.062 9.0830002 -1.3917
-10.557 8.9246998 -1.4658999
-10.356 8.9343004 -1.5379
3.5524001 9.0599003 -1.5926
3.806 9.0056 -1.5346
4.2045999 8.9982004 -1.4387
4.6034002 9.0054998 -1.3042001
4.8676 8.9329996 -1.2366
8.5874996 8.9891005 -1.2885
9.0162001 8.9889002 -1.2563
9.2771997 8.9053001 -1.2286
16.540001 8.9792004 -1.3657
23.35 9.0757999 -1.586
-13.294 9.4370003 -1.5898
-13.003 9.3619003 -1.393
-12.666 9.3514996 -1.4256001
-12.246 9.3135996 -1.4045
-11.844 9.4195004 -1.5294
-11.385 9.2930002 -1.5068001
-11.01 9.2209997 -1.4857
-10.659 9.2370005 -1.5448
3.5274 9.3128004 -1.5798
