# .PCD v0.7 - Point Cloud Data file format
VERSION 0.7
FIELDS x y z
SIZE 4 4 4
TYPE F F F
COUNT 1 1 1
WIDTH 1680
HEIGHT 1
VIEWPOINT 0 0 0 1 0 0 0
POINTS 1680
DATA ascii
-10.842 0.11465 0.38909
-10.789 0.10902 0.39908999
-6.4291 0.14151999 0.39908999
-6.3340998 0.14069 0.39908999
-6.3165998 0.10402 0.39658999
-6.1890998 0.15902001 0.32909
-11.259 0.23902 0.33408001
-11.165 0.22302 0.34509
-11.101 0.22569001 0.38409001
-10.991 0.19902 0.37242001
-10.923 0.20401999 0.37408999
-10.859 0.19152001 0.38907999
-6.4291 0.20736 0.39409
-6.3308001 0.19735999 0.37242001
-6.1791 0.16902 0.35909
-11.304 0.29901999 0.33658999
-11.247 0.29214999 0.34158999
-11.164 0.28736001 0.35742
-11.086 0.27818999 0.38659
-11.009 0.28402001 0.39908999
-10.894 0.25902 0.39908999
-10.869 0.24902 0.39908999
-6.4333 0.28235999 0.39324999
-6.3450999 0.29402 0.3398
-6.2811999 0.29776999 0.37700999
-6.2391 0.29901999 0.39908999
-11.382 0.37602001 0.32909
-11.313 0.36201999 0.34007999
-11.244 0.36201999 0.35209
-11.176 0.36346999 0.37131
-11.099 0.36151999 0.39658999
-6.4201002 0.37602001 0.39229
-6.3657999 0.34569001 0.34575
-6.2641001 0.35652 0.38409001
-6.2391 0.35901999 0.39908999
-11.387 0.42901999 0.33708
-11.314 0.45027 0.36658999
-11.243 0.44556001 0.38563001
-11.182 0.42901999 0.39809
-6.4390998 0.43902001 0.39908999
-6.3516002 0.42651999 0.35909
-6.2990999 0.45236 0.39243001
-11.491 0.52802002 0.33008999
-11.402 0.51758999 0.35337001
-11.327 0.52701998 0.38308999
-11.257 0.50568998 0.39908999
2.5125 0.52486002 0.36471
-11.552 0.60465002 0.33533001
-11.486 0.60236001 0.34742001
-11.401 0.59302002 0.37108999
-11.333 0.60402 0.38964
-11.279 0.62901998 0.39908999
2.4684 0.61651999 0.38909
2.4858999 0.60215002 0.35909
-11.556 0.67236 0.33241999
-11.488 0.68715 0.34784001
-11.416 0.69568998 0.36480001
-11.327 0.67680001 0.39353001
-3.9614999 0.70806998 0.39908999
-3.9007001 0.71333998 0.39568001
2.28 0.67986 0.36991999
2.4509001 0.68215001 0.35471001
-11.555 0.77402002 0.33241999
-11.477 0.76214999 0.35284001
-11.4 0.76027 0.37784001
-11.352 0.74901998 0.39576
-4.1090999 0.78902 0.39908999
-3.9466 0.73892999 0.38361001
-3.8843999 0.73426998 0.39133999
-3.8234 0.73330998 0.39765999
-3.6208 0.79569 0.39908999
2.2128999 0.78302002 0.36109
2.2409 0.73901999 0.34909001
2.3908999 0.79901999 0.38907999
2.418 0.76045001 0.36087
-11.609 0.86901999 0.32909
-11.566 0.84473997 0.33623001
-11.486 0.84701997 0.36208999
-11.402 0.83828002 0.39094001
-6.3765998 0.84736001 0.38909
-4.0425 0.86236 0.38076001
-3.7934999 0.86501998 0.36908999
-3.7211001 0.84773999 0.38492
-3.6582999 0.82201999 0.39458999
2.3613999 0.85123998 0.36974999
2.4008999 0.81235999 0.34909001
-11.576 0.92259002 0.33908999
-11.482 0.93651998 0.37033999
-11.403 0.92309999 0.39353001
-11.357 0.94401997 0.39908999
-6.3460002 0.92719001 0.36875999
-6.3190999 0.95902002 0.34409001
-4.0091 0.91902 0.39908999
-3.8541 0.94902003 0.34409001
-3.8029001 0.91784 0.37189999
-3.7444999 0.90436 0.39658999
2.2872 0.93234998 0.38003999
2.3346 0.91500002 0.34435999
-11.619 1.024 0.34242001
-11.577 1.0140001 0.35325
-11.484 1.006 0.36908999
-11.408 1.0029 0.38798001
-11.354 1.0089999 0.39908999
-6.3311 0.99501997 0.39008999
-6.3111 1.003 0.34709001
-3.8058 0.97569001 0.36241999
-3.7411001 0.97702003 0.38709
2.2678001 0.99747998 0.36254999
-11.72 1.0901 0.34353
-11.655 1.099 0.36576
-11.563 1.0804 0.37075999
-11.499 1.0724 0.38242999
-11.414 1.0757 0.39243001
2.2091 1.0808001 0.35788
2.2458999 1.0615 0.32991999
-11.788 1.174 0.33307999
-11.709 1.1424 0.35909
-11.632 1.1707 0.38742
-11.57 1.1733 0.39623001
-11.519 1.1289999 0.39908999
2.1408999 1.1928 0.36533999
2.1745999 1.1415 0.37033001
-11.793 1.2374001 0.33741999
-11.722 1.2312 0.35742
-11.652 1.2361 0.38093999
-11.582 1.2415 0.39908999
-6.3747001 1.279 0.39243001
2.0634999 1.265 0.38308999
2.1045001 1.2413 0.35953999
-11.855 1.3403 0.32909
-11.815 1.3203 0.33783999
-11.721 1.3195 0.36765999
-11.66 1.3199 0.38409001
-11.599 1.319 0.39908999
-6.4201002 1.3324 0.39719
-6.3789001 1.33 0.36480999
1.9875 1.3523999 0.38909
2.0211999 1.3261 0.36208001
-11.881 1.4133 0.33766001
-11.802 1.4018 0.35909
-11.728 1.3983001 0.37338001
-11.66 1.4182 0.39743
-6.4303999 1.4135 0.37492001
-6.3924999 1.3871 0.34132999
1.9727 1.4064 0.37092
2.0109 1.3839999 0.33908999
-11.939 1.5039999 0.32909
-11.883 1.483 0.34108999
-11.811 1.4833 0.36686999
-11.712 1.4782 0.39409
-6.4449 1.4773 0.36223999
1.9395 1.4904 0.37375
-11.929 1.579 0.32909
-11.887 1.5683 0.34193999
-11.807 1.5603 0.36972001
-11.74 1.5427999 0.39534
-6.4924998 1.5551 0.38964999
-6.4621 1.5616 0.34974
1.9009 1.559 0.39409
1.9279 1.554 0.34509
-6.4991002 1.6390001 0.38909
-6.4726 1.6413 0.34472999
1.8822 1.6337 0.37075001
-6.4997001 1.7230999 0.36614001
-6.4791002 1.699 0.33408001
1.8742 1.6957 0.34909001
-6.5116 1.799 0.36528
-6.5349998 1.8782001 0.36888
-6.5690999 1.969 0.38907999
-6.5524998 1.9582 0.35534
-10.614 2.0639999 0.39908999
-6.5823002 2.0485001 0.3698
-6.5591002 2.0190001 0.32909
-10.755 2.1415 0.33783001
-10.68 2.1210001 0.36708999
-10.619 2.1307001 0.39241999
-6.5995998 2.1247001 0.36919001
-10.765 2.21 0.33509001
-10.697 2.2024 0.35813999
-10.61 2.2130001 0.38009
-6.6107001 2.1982999 0.36024001
-10.742 2.279 0.33241999
-10.688 2.2925999 0.34908
-10.603 2.2808001 0.37727001
-10.559 2.2839999 0.39908999
-6.6247001 2.2911999 0.36520001
-10.762 2.3889999 0.33509001
-10.694 2.3740001 0.35846001
-10.606 2.3789999 0.39326
-6.6261001 2.372 0.37909001
-10.824 2.4590001 0.33408001
-10.768 2.4389999 0.34808999
-10.681 2.4356999 0.37797999
-10.622 2.4377999 0.39534
-6.6148 2.4331999 0.37158999
-6.5191002 2.4389999 0.34909001
-10.901 2.5457001 0.32909
-10.849 2.5304999 0.34123001
-10.773 2.5318999 0.36623001
-10.69 2.5204999 0.38867
-6.6540999 2.529 0.39908999
-6.6210999 2.5055001 0.36208999
3.9858999 2.5439999 0.32909
4.0405002 2.5272 0.33059001
-10.984 2.6240001 0.32909
-10.922 2.6015 0.34409001
-10.849 2.6034999 0.36019999
-10.768 2.6019001 0.38909
-6.6686001 2.6096001 0.38124999
-6.6307998 2.6003001 0.33783999
3.9684 2.6071 0.33133999
4.0338998 2.6043999 0.34309
-10.989 2.6524 0.33241999
-10.931 2.6682 0.35576001
-10.851 2.6853001 0.38284001
-10.797 2.6815 0.39658999
-6.6746998 2.6860001 0.37970999
-6.6391001 2.6749001 0.33866999
-6.5541 2.6589999 0.33908001
3.8192 2.7090001 0.32909
3.8755 2.6947 0.33258
3.9598 2.6791999 0.3391
4.0295 2.6844001 0.35855001
-11.077 2.7465 0.32909
-11.002 2.7495999 0.34909001
-10.924 2.7414999 0.37242001
-10.855 2.7353001 0.39409
-10.124 2.799 0.35409001
-10.044 2.7939999 0.37408999
-6.7451 2.7749 0.39337
-6.6844001 2.7621 0.36320999
-6.6391001 2.7690001 0.33241999
3.8073001 2.7732 0.33199999
3.8813 2.7634001 0.34252
3.9556 2.7562001 0.36083999
4.0351 2.7735 0.38514999
-10.447 2.809 0.32909
-10.179 2.809 0.32909
-10.149 2.809 0.34909001
-10.049 2.819 0.32909
-9.9891005 2.819 0.33908001
-9.8766003 2.8282001 0.34825
-9.8003998 2.8203001 0.37909001
-9.7213001 2.839 0.36480001
-9.6500998 2.8499999 0.35308999
-9.5649996 2.8457 0.36409
-9.4791002 2.8624001 0.34575
-9.4050999 2.8410001 0.38108999
-9.3308001 2.8599 0.37992001
-9.2691002 2.869 0.38907999
-9.1541004 2.8789999 0.38907999
-6.7535 2.8499 0.38446999
-6.6914001 2.8385 0.34851
3.7211001 2.8578999 0.32984
3.7964001 2.8459001 0.33750999
3.8766999 2.8399999 0.34498
3.9502001 2.8408 0.37075999
4.0314002 2.8422 0.39193001
4.2009001 2.869 0.32909
4.2459002 2.8340001 0.36908999
-9.3091002 2.9024 0.34575
-9.2591 2.9189999 0.32909
-9.1740999 2.9099 0.35409001
-9.0641003 2.8989999 0.37909001
-9.0050001 2.9182 0.37075001
-8.9224997 2.9189999 0.38409001
-8.8441 2.9382999 0.37338001
-8.7825003 2.9389999 0.37742001
-8.6590996 2.954 0.37909001
-8.6190996 2.9489999 0.39908999
-6.7431998 2.9308 0.37498999
-6.7051001 2.9177001 0.33575001
3.7161 2.8900001 0.32909
3.7992001 2.8957 0.33575001
3.8859 2.9195001 0.34393001
3.9535999 2.9219999 0.36537999
4.0265002 2.9284 0.39179
4.2142 2.9057 0.33908999
-8.9691 2.9690001 0.32909
-8.9291 2.9690001 0.32909
-8.8191004 2.9690001 0.33908001
-8.7707996 2.9790001 0.34575
-8.6821003 2.97 0.36109
-8.5941 3.0028 0.36284
-8.5230999 3.0350001 0.34908
-8.4190998 3.0374 0.39074999
-6.7575998 2.9926 0.36427
3.9008999 2.9874001 0.32909
3.9586 3.0098 0.35082
4.0324001 3.0037 0.38433
4.2308998 2.9690001 0.33908001
4.2491999 3.0090001 0.36576
-8.5191002 3.049 0.33908001
-8.4741001 3.0639999 0.33408001
-8.3591003 3.0739999 0.37408999
-6.8091002 3.079 0.39908999
-6.7883 3.0868001 0.35881001
3.9075 3.1157 0.33241999
3.9575 3.0718999 0.34303999
4.0169001 3.0841999 0.36941999
4.2508998 3.079 0.35909
-8.2031002 3.1470001 0.34308001
-8.1286001 3.1589999 0.37075999
-6.8304 3.1707001 0.36039999
3.8936 3.1628001 0.33138001
3.9568 3.1529 0.34856999
4.0198002 3.1435001 0.37131
-8.0225 3.2456999 0.33575001
-7.9891 3.2090001 0.39908999
-7.8965998 3.2690001 0.38534001
-7.8091002 3.279 0.39908999
-6.8941002 3.2644 0.38442001
-6.8625002 3.2341001 0.36028001
3.8508999 3.2090001 0.32909
-7.8641 3.319 0.34909001
-7.7990999 3.3239999 0.38409001
-6.908 3.3364999 0.3678
-6.8790998 3.3057001 0.33741999
-7.6791 3.3989999 0.34909001
-6.9240999 3.4082999 0.36173001
-7.4590998 3.5090001 0.39908999
-6.9691 3.5039999 0.39908999
-6.9491 3.4856999 0.36866999
-7.3765998 3.5639999 0.36159
-7.3316002 3.5764999 0.37659001
-6.9766002 3.5664999 0.37909001
-6.9491 3.5423999 0.33241999
-7.3024998 3.6240001 0.33575001
-7.2391 3.6440001 0.34909001
-7.1608 3.6557 0.37575001
-6.9821 3.6384001 0.35541999
-14.494 -3.556 0.42159
-14.441 -3.5429001 0.4395
-14.367 -3.5415001 0.4562
-14.301 -3.5639 0.47205001
-9.6341 -3.5209999 0.44909
-9.5832996 -3.5538001 0.47409001
1.5037 -3.5495 0.44766
1.5209 -3.5309999 0.40909001
8.1273003 -3.5457001 0.41381001
8.1956997 -3.5481 0.43428999
8.2711 -3.5518 0.46465999
8.3309002 -3.5209999 0.47909999
-14.578 -3.4693 0.41242
-14.524 -3.4751 0.42353001
-14.441 -3.4730999 0.45741999
-14.368 -3.4758999 0.47055
-9.6925001 -3.4642999 0.42242
-9.6394997 -3.464 0.44631001
-9.5874004 -3.4783001 0.47338
1.5394 -3.4665 0.44409001
8.0643997 -3.4597001 0.40933999
8.1188002 -3.4712999 0.42085999
8.1976004 -3.4735 0.44811001
8.2734003 -3.4793 0.47114
8.3209 -3.4909999 0.47909999
-14.594 -3.3935001 0.42013001
-14.521 -3.3998001 0.44775
-14.451 -3.3945999 0.46909001
-9.7691002 -3.381 0.40909001
-9.7215996 -3.3922 0.4118
-9.6472998 -3.3887999 0.43575001
-9.5689001 -3.3889 0.46325001
-9.5191002 -3.401 0.47909999
1.5731 -3.3954 0.44687
8.0452003 -3.3824 0.41646999
8.1152 -3.3954 0.43643999
8.1977997 -3.3973999 0.46180999
8.2564001 -3.4157 0.47576001
-14.669 -3.2809999 0.40909001
-14.599 -3.3106999 0.42135999
-14.522 -3.3159001 0.45657
-14.451 -3.3062999 0.4779
-9.7865 -3.3223 0.41174999
-9.7287998 -3.3234 0.42530999
-9.6419001 -3.3157001 0.44863999
-9.5757999 -3.3250999 0.46950999
-9.5091 -3.3510001 0.47409001
1.5875 -3.3443 0.47242999
1.6134 -3.3085001 0.43720999
8.0423002 -3.3185999 0.41850999
8.1127005 -3.3138001 0.44611999
8.1863003 -3.3183 0.47048
-14.66 -3.2335999 0.41308999
-14.603 -3.2306001 0.4395
-14.524 -3.2256 0.47095001
-14.479 -3.2509999 0.47909999
-9.7903996 -3.2197001 0.41784
-9.7286997 -3.2370999 0.42522001
-9.6359997 -3.2347 0.45468
-9.5845003 -3.2298999 0.47130999
1.6452 -3.2341001 0.44345999
7.9706001 -3.2121999 0.41055
8.0354996 -3.2302999 0.42555001
8.1169004 -3.2377999 0.45482001
8.1794004 -3.2388 0.47716999
-14.659 -3.141 0.40909001
-14.614 -3.1543 0.43492001
-14.532 -3.1608 0.47422999
-9.8491001 -3.1359999 0.40909001
-9.7965002 -3.1519001 0.41686001
-9.7186003 -3.1670001 0.42258999
-9.6472998 -3.165 0.44628
-9.5840998 -3.145 0.47009
1.6679 -3.164 0.46309
1.6859 -3.1429999 0.44609001
7.9109001 -3.1210001 0.40909001
7.9576001 -3.1521001 0.41933
8.0360003 -3.1517999 0.44507
8.1115999 -3.1580999 0.46808001
8.1609001 -3.171 0.47909999
-14.672 -3.0848999 0.41909
-14.604 -3.0748 0.45528001
-14.551 -3.0797999 0.47562999
-9.8690996 -3.076 0.40909001
-9.8043003 -3.0745001 0.417
-9.7332001 -3.0745001 0.42337
-9.6391001 -3.0716 0.44159001
-9.5811005 -3.0669999 0.47108999
1.7125 -3.0753 0.44756001
7.8997998 -3.0768001 0.41286001
7.9542999 -3.0778 0.42715001
8.0341997 -3.0757 0.45537999
8.1009998 -3.0716 0.4765
-14.824 -2.9793 0.40909001
-14.758 -2.9809999 0.41337001
-14.682 -3.0030999 0.43296999
-14.604 -3.0026 0.46151999
-14.549 -3.0209999 0.47409001
-9.8591003 -2.9660001 0.40909001
-9.8058004 -2.9993 0.41742
-9.7156 -2.9830999 0.43766001
-9.6465998 -2.9909999 0.45574999
-9.5965996 -2.9960001 0.47659001
1.7414 -3.0165 0.44685999
1.7709 -2.961 0.42409
7.8836002 -2.9904001 0.41553
7.9558001 -3.0011001 0.43614
8.0352001 -2.9965 0.46500999
8.0871 -3.0016 0.47909999
-14.836 -2.9098001 0.41711
-14.767 -2.9245 0.43193999
-14.684 -2.9216001 0.45221999
-14.608 -2.9273 0.47196999
-14.559 -2.951 0.47909999
-9.8607998 -2.9126 0.41575
-9.802 -2.9138 0.42623001
-9.7191 -2.9093001 0.45074999
-9.6457996 -2.9117999 0.47075999
-9.5991001 -2.941 0.47909999
7.8234 -2.901 0.41034001
7.8757 -2.9188001 0.42344001
7.9533 -2.9182 0.4474
8.0274 -2.9196999 0.47262999
8.0809002 -2.941 0.47909999
-14.905 -2.835 0.40909001
-14.84 -2.8494 0.42488
-14.759 -2.826 0.45381001
-14.709 -2.8375001 0.47130999
-9.8806 -2.829 0.41959
-9.8015003 -2.8316 0.44859001
-9.7309999 -2.8278999 0.47284001
1.8169 -2.836 0.44709
7.8094001 -2.8299999 0.41227999
7.8786001 -2.8327 0.43667001
7.9580998 -2.8367 0.46237001
8.0120001 -2.8585 0.47604001
-14.916 -2.7571001 0.41409001
-14.847 -2.7516999 0.4296
-14.762 -2.7562001 0.45888001
-14.707 -2.766 0.47409001
-10.014 -2.7309999 0.40909001
-9.9590998 -2.7509999 0.41709
-9.8928003 -2.7435999 0.43446001
-9.8104 -2.7572 0.45908999
-9.7425003 -2.7476001 0.47576001
1.8309 -2.7876 0.47909999
1.8575 -2.7506001 0.43533999
7.8080001 -2.7544 0.41771001
7.8783002 -2.7585001 0.44323
7.9548998 -2.7592001 0.46865001
-15.049 -2.641 0.40909001
-14.994 -2.6589999 0.41229999
-14.928 -2.6698 0.43009001
-14.84 -2.6789999 0.44953001
-14.77 -2.6768 0.46847999
-10.032 -2.6684999 0.41409001
-9.9624996 -2.6743 0.43853
-9.8879004 -2.6687 0.45324999
-9.8041 -2.6666 0.47095999
-9.7490997 -2.6760001 0.47909999
1.8891 -2.6742001 0.45181999
7.7962999 -2.6743 0.41826001
7.8726001 -2.6761 0.44966
7.9481001 -2.6803999 0.47273001
-15.064 -2.5918 0.40909001
-15.01 -2.5906999 0.42372999
-14.922 -2.6005001 0.44325
-14.851 -2.6047001 0.46605
-14.784 -2.6259999 0.47909999
-10.025 -2.5929999 0.41707999
-9.9714003 -2.6004 0.44242001
-9.8801003 -2.592 0.46709001
-9.8275003 -2.5943 0.47576001
1.9109 -2.6210001 0.41907999
1.9269 -2.5799999 0.45809001
7.7479 -2.5915 0.40909001
7.7958999 -2.5952001 0.42304999
7.8769999 -2.5964999 0.45502001
7.9418998 -2.5946 0.47661
-15.07 -2.5158 0.41909
-15.011 -2.5172 0.43516001
-14.915 -2.5193 0.46891001
-14.869 -2.5409999 0.47909999
-10.016 -2.5243001 0.41907999
-9.9659996 -2.5146999 0.44034001
-9.8865995 -2.5076001 0.46575999
1.9584 -2.5155001 0.43709001
7.7335 -2.5121 0.40909001
7.7954998 -2.5246999 0.42829001
7.8758001 -2.5253 0.45727
7.9335999 -2.5169001 0.47808999
-15.139 -2.4260001 0.42409
-15.083 -2.4226 0.43075001
-15.002 -2.4432001 0.44409001
-14.938 -2.4260001 0.47909999
-9.9391003 -2.451 0.44242001
-9.8846998 -2.4354 0.46465001
-9.8390999 -2.421 0.47909999
1.9859 -2.4484999 0.45242
2.0042 -2.4143 0.44242001
7.7217002 -2.4554 0.41374999
7.8165002 -2.4417 0.43432
7.8782001 -2.4352 0.44097999
7.9569998 -2.431 0.44626001
8.033 -2.4277999 0.46068999
8.1169004 -2.4105 0.46697
8.1659002 -2.4085 0.47909999
-15.137 -2.3610001 0.43076
-15.086 -2.3587999 0.44797999
-14.999 -2.3670001 0.47308999
-14.939 -2.381 0.47909999
-9.8865995 -2.3785 0.46408999
2.0302 -2.3522 0.43595999
7.9008999 -2.391 0.40909001
7.9561 -2.3889999 0.41477999
8.0346003 -2.3696001 0.41835999
8.1204996 -2.3520999 0.4357
8.1954002 -2.3554001 0.46101999
8.2719002 -2.3367 0.47093999
8.3209 -2.3210001 0.47909999
-15.129 -2.2509999 0.45908999
-15.085 -2.2780001 0.46709001
-15.02 -2.2988999 0.47409001
-9.9391003 -2.2576001 0.40909001
-9.8924999 -2.2643001 0.44075
-9.8266001 -2.2709999 0.47909999
2.0596001 -2.2809999 0.44595999
2.0841999 -2.256 0.42074999
8.1187 -2.3023 0.40909001
8.2037001 -2.2783 0.41914999
8.2701998 -2.2788999 0.44132
8.3485003 -2.2646 0.46803999
-15.102 -2.2060001 0.47909999
-9.9466 -2.1947 0.42409
-9.8870001 -2.1893001 0.44242001
-9.8063002 -2.1974001 0.47338
2.0709 -2.2309999 0.46909001
2.0984001 -2.201 0.44034001
8.2146997 -2.2270999 0.41062999
8.2775002 -2.221 0.42423001
8.3587999 -2.1993999 0.43528
8.4305 -2.2019999 0.4639
8.4937 -2.1622 0.47297999
-10.029 -2.0810001 0.40909001
-9.9686003 -2.1026001 0.42908001
-9.8880997 -2.1259999 0.43509001
-9.8069 -2.1087999 0.46131
-9.7524996 -2.1076 0.47909999
2.1345999 -2.1168001 0.44534001
2.1609001 -2.0810001 0.41907999
8.3669996 -2.1503 0.41174999
8.4445 -2.1198001 0.42541
8.5116997 -2.1127 0.45098999
8.5608997 -2.1210001 0.47909999
-10.036 -2.0344999 0.41552001
-9.9691 -2.0510001 0.43766001
-9.8915997 -2.0592999 0.44408
-9.8041 -2.0710001 0.46408999
2.1508999 -2.0710001 0.45908999
2.1794 -2.0301001 0.43766001
8.5286999 -2.0436001 0.42192
8.5951004 -2.0372 0.44091001
8.6686001 -2.0260999 0.46524
8.7208996 -2.0109999 0.47409001
-10.054 -1.9735 0.41909
2.2126999 -1.9586999 0.45227
2.2509 -1.971 0.41907999
8.6128998 -1.9813 0.41859001
8.6779003 -1.9574 0.42697999
8.7546997 -1.9543999 0.45622
8.8296003 -1.9385 0.47534001
2.2209001 -1.881 0.44907999
2.2542 -1.8721 0.44242001
8.6969995 -1.901 0.4102
8.7580996 -1.8778 0.42030999
8.8318996 -1.8794 0.44859999
8.9021997 -1.8710999 0.46893999
8.9609003 -1.851 0.47909999
-10.116 -1.7853 0.41479999
-10.057 -1.781 0.43909001
2.2830999 -1.7943 0.44130999
8.7763004 -1.8176 0.41242
8.8317003 -1.8005 0.42476001
8.9160995 -1.7958 0.45155001
8.9865999 -1.7973 0.47215
9.0509005 -1.771 0.47909999
-10.179 -1.706 0.41159001
-10.128 -1.7122 0.42659
-10.041 -1.7244999 0.45052001
-9.9791002 -1.711 0.47909999
2.3009 -1.7376 0.46241999
2.3239999 -1.7018 0.44220999
8.8416004 -1.7271 0.41316
8.9168997 -1.7134 0.42809001
8.9885998 -1.7158 0.45074999
9.0700998 -1.71 0.46901
9.1309004 -1.701 0.47909999
-10.205 -1.6388 0.41622999
-10.127 -1.6472 0.44034001
-10.04 -1.6339999 0.46259001
-9.9811001 -1.633 0.47909999
2.3539 -1.6358 0.44272
8.9408998 -1.671 0.41657999
8.9939003 -1.653 0.42607999
9.0698004 -1.6593 0.44685999
9.1382999 -1.6533999 0.45815
9.2009001 -1.6210001 0.44907999
-10.252 -1.561 0.41159001
-10.202 -1.5535001 0.42783999
-10.115 -1.5535001 0.44742
-10.053 -1.5568 0.46575999
-9.9990997 -1.546 0.47909999
2.3789999 -1.5691 0.45221001
2.4124999 -1.5408 0.42284
-10.279 -1.4735 0.41159001
-10.208 -1.4643 0.43492001
-10.116 -1.4724 0.45908999
-10.054 -1.4922 0.47159001
2.4226999 -1.4755 0.44545001
-10.285 -1.3997999 0.41931999
-10.207 -1.406 0.45109001
-10.144 -1.3972 0.47409001
2.4605 -1.4 0.44459
2.4863999 -1.3715 0.42908999
-10.354 -1.2999001 0.41352999
-10.282 -1.3199 0.43241999
-10.205 -1.327 0.46408999
2.4967 -1.3246 0.45506001
-10.412 -1.251 0.40909001
-10.36 -1.2304 0.42298001
-10.28 -1.2405 0.44317999
-10.206 -1.2493 0.47075999
2.5381999 -1.2377 0.44832999
2.5609 -1.2135 0.42908001
-10.424 -1.1526 0.41075
-10.361 -1.1676 0.43686
-10.284 -1.161 0.46052
-10.222 -1.1585 0.47659001
2.5509 -1.191 0.45908999
2.5836 -1.1555001 0.44378
-10.419 -1.0876 0.41242
-10.371 -1.0781 0.43766001
-10.277 -1.0785 0.47409001
2.6170001 -1.0743001 0.45019999
2.6408999 -1.0443 0.41575
-10.44 -0.98997998 0.42309001
-10.367 -1.0035 0.45534
2.6308999 -1.011 0.47909999
2.6538 -0.98727 0.45353001
-10.445 -0.91930997 0.43241999
-10.37 -0.89875001 0.47242001
2.5908999 -0.92097998 0.40909001
2.6912999 -0.91780001 0.43818
-10.431 -0.84375 0.42631
-10.365 -0.83598 0.45784
2.7084 -0.86223 0.45534
2.7334001 -0.82348001 0.43909001
-10.433 -0.75048 0.42109001
-10.363 -0.76264 0.45159
-10.314 -0.76598001 0.47909999
2.7639 -0.75448 0.44709
-10.505 -0.66847998 0.40909001
-10.451 -0.67597997 0.41694
-10.364 -0.67198002 0.44959
2.7859001 -0.69797999 0.44709
2.8009 -0.67347997 0.44159001
-10.502 -0.62598002 0.40909001
-10.462 -0.59597999 0.44659001
-10.344 -0.61097997 0.47909999
2.8331001 -0.60097998 0.43909001
-10.539 -0.48098001 0.40909001
-10.449 -0.51098001 0.47909999
2.8643999 -0.52311999 0.44479999
2.8808999 -0.49430999 0.43909001
-10.501 -0.44931 0.41575
-10.451 -0.43347999 0.43408999
-10.369 -0.41955 0.46766001
2.9008999 -0.44097999 0.43909001
-10.514 -0.37264001 0.42242
-10.445 -0.35709 0.45964
-10.386 -0.36598 0.47242001
-10.593 -0.28169 0.42765999
-10.527 -0.28986999 0.45353001
-10.462 -0.30098 0.47659001
-10.729 -0.21098 0.40909001
-10.683 -0.1841 0.43221
-10.609 -0.19931 0.46075001
-10.549 -0.20764001 0.47576001
-10.757 -0.10535 0.41659001
-10.684 -0.10383 0.45409
-10.617 -0.12598 0.47909999
-6.4491 -0.090976998 0.46909001
-11.309 -0.04431 0.46243
-10.824 -0.019309999 0.42741999
-10.763 -0.034159001 0.43772
-10.672 -0.034727 0.46909001
-10.629 -0.045977 0.47909999
-6.4446001 -0.035432 0.44984999
-6.1890998 -0.00097704004 0.40909001
-6.1174998 -0.0094771003 0.43641999
-6.0469999 -0.013596 0.46528
-11.319 0.049022999 0.42908999
-10.749 0.059023 0.40909001
-10.677 0.050689999 0.43158999
-10.639 0.049022999 0.43909001
-6.4411998 0.039023001 0.44595999
-6.2511001 0.058022998 0.40909001
-6.2051001 0.043689001 0.41497001
-6.1317 0.035083 0.43803
-6.0741 0.031523 0.46909001
-10.739 0.099022999 0.42409
-10.702 0.11236 0.43575999
-6.4468002 0.12037 0.44294
-6.2753 0.13203999 0.41732001
-6.21 0.12106 0.43575999
-11.069 0.22902 0.41409001
-11.025 0.21152 0.42034
-10.826 0.19236 0.41242
-10.757 0.19735999 0.42491999
-10.674 0.21291 0.45631
-10.624 0.21235999 0.46909001
-6.448 0.20541 0.43687001
-6.2191 0.23902 0.42908999
-11.009 0.28652 0.41409001
-10.924 0.31152001 0.42409
-10.829 0.28652 0.43158999
-10.762 0.28347 0.44797999
-10.686 0.28755999 0.47284001
-10.624 0.26402 0.47409001
-6.4538002 0.29302001 0.44220001
-6.2045002 0.28402001 0.42908999
-6.1430998 0.28628999 0.4729
-11.066 0.37902001 0.40909001
-11.006 0.36616999 0.42908999
-10.932 0.36236 0.44242001
-10.838 0.37044999 0.44479999
-10.767 0.36651999 0.46909001
-10.584 0.35901999 0.47909999
-6.4517999 0.36814001 0.43762001
-6.2140999 0.35602 0.41909
-4.1690998 0.39901999 0.47909999
-4.1591001 0.39901999 0.47909999
-11.159 0.44736001 0.41075
-11.089 0.45045 0.42908999
-11.01 0.44027001 0.42908999
-10.921 0.42401999 0.44194001
-10.862 0.44236001 0.43658999
-10.769 0.43101999 0.46408999
-6.4579 0.45006001 0.44137999
-6.2651 0.46002001 0.41709
-6.2006001 0.43331 0.4348
-4.1824999 0.43423 0.4718
-4.1378999 0.44938001 0.47867
-4.0502 0.47902 0.47909999
-11.224 0.53402001 0.41907999
-11.163 0.53319001 0.42908999
-11.097 0.52569002 0.44909
-11.013 0.53473997 0.46623001
-10.809 0.48901999 0.44907999
-10.777 0.49735999 0.46408999
-6.4924998 0.51569003 0.47909999
-6.4654002 0.51915002 0.44813001
-6.2730999 0.54702002 0.44509
-6.2291002 0.49902001 0.44909
-4.1248999 0.52219999 0.46217999
-4.0500998 0.52563 0.46779999
-3.9645 0.5309 0.47213
-3.8884001 0.54210001 0.47742999
-3.8308001 0.54736 0.47909999
2.4909 0.52402002 0.41907999
-11.231 0.59258997 0.41766
-11.169 0.60347003 0.43463999
-11.082 0.60069001 0.45908999
-11.026 0.60901999 0.47909999
-6.4791002 0.57902002 0.46909001
-4.098 0.56968999 0.44042
-4.0345001 0.59969002 0.43686
-3.9654 0.60045999 0.44398001
-3.8915999 0.59842002 0.45275
-3.8069 0.60136002 0.45839
-3.7219 0.60851997 0.46904001
-3.6473 0.61667001 0.47635001
-3.5690999 0.63652003 0.47909999
2.4509001 0.61501998 0.42908999
-11.244 0.69068998 0.41909
-11.159 0.67759001 0.44479999
-11.072 0.67569 0.47159001
-6.4438 0.69568998 0.46575999
-4.1757998 0.65569001 0.47576001
-4.1420002 0.70526999 0.46825999
-4.0195999 0.65775001 0.41369
-3.9684 0.67054999 0.41409999
-3.8842001 0.68452001 0.41034001
-3.8031001 0.68312001 0.42497
-3.7272 0.68185002 0.43583
-3.6449001 0.68401003 0.45059001
-3.5631001 0.68715 0.46709999
-3.5023999 0.69173002 0.47609001
2.2509 0.69902003 0.42908001
2.4124999 0.68735999 0.44242001
-11.295 0.75235999 0.40909001
-11.24 0.75880998 0.42346001
-11.172 0.77346998 0.44797999
-11.094 0.75401998 0.47492
-6.4386001 0.76881999 0.44953999
-4.1061001 0.76323998 0.45565999
-4.0791001 0.78402001 0.42908999
-3.7790999 0.72902 0.40909001
-3.7172999 0.73242003 0.41668999
-3.6273999 0.74536002 0.43209001
-3.5662999 0.76389003 0.43395999
-3.4867001 0.76858002 0.45254001
-3.4244001 0.76788002 0.46776
2.3829999 0.75474 0.45195001
2.4024999 0.74068999 0.41576001
-11.369 0.86901999 0.40909001
-11.329 0.84310001 0.41242
-11.246 0.83045 0.42480001
-11.162 0.84902 0.45409
-11.101 0.83301997 0.47709
-6.4275999 0.84692001 0.45712
-6.3881001 0.86058998 0.42377001
-4.0890999 0.81401998 0.47909999
-4.0591002 0.84461999 0.44492
-3.6350999 0.85466999 0.41606
-3.5632 0.84407997 0.43774
-3.4860001 0.84368998 0.46842
-3.4358001 0.82235998 0.47909999
2.1759 0.86401999 0.40909001
2.2925 0.87235999 0.44576001
2.3429999 0.82984 0.42965999
-11.323 0.93013 0.41242
-11.246 0.92569 0.43076
-11.157 0.92044997 0.4648
-11.114 0.91902 0.47909999
-6.4233999 0.90977001 0.47609001
-6.3751001 0.92576998 0.44226
-4.0341001 0.90272999 0.44409001
-3.7135999 0.92334998 0.41220999
-3.6459 0.92211002 0.43246999
-3.5692999 0.91851997 0.46248001
-3.5125 0.89736003 0.47909999
2.2602 0.92839998 0.43970999
-11.314 1.0099 0.42159
-11.238 1.0095 0.43959001
-11.152 1.0154999 0.47194999
-11.119 1.039 0.47909999
-6.4091001 0.98901999 0.47909999
-6.3585 0.99853998 0.44668999
-4.0591002 0.96902001 0.47909999
-3.7241001 0.96902001 0.41659001
-3.6403999 0.97902 0.44909
-3.5678999 0.99145001 0.46590999
2.2228999 1.011 0.43808001
2.2409 0.98069 0.43408
-11.484 1.109 0.40909001
-11.379 1.109 0.40909001
-11.33 1.0857 0.41852999
-11.238 1.0762 0.44051
-11.17 1.097 0.46709001
-11.119 1.049 0.47909999
2.1475 1.119 0.45574999
2.1863999 1.0801001 0.43408999
-11.529 1.189 0.40909001
-11.484 1.163 0.41975999
-11.4 1.1687 0.44609001
-11.324 1.1687 0.43381
-11.246 1.1499 0.44907999
-11.167 1.1665 0.47659001
-6.4162002 1.1849 0.47117001
-6.3863001 1.1758 0.45589
2.0258999 1.154 0.44909
2.1108999 1.1720001 0.44159001
2.1609001 1.1390001 0.40909001
-11.543 1.2410001 0.41909
-11.493 1.2446001 0.43575999
-11.404 1.2569 0.46766001
-11.325 1.234 0.45908999
-11.247 1.2309999 0.46709001
-6.4380002 1.2514 0.45879
-6.3850002 1.2288001 0.42640999
2.0441999 1.2442 0.44475999
2.0809 1.229 0.41907999
-11.561 1.3178999 0.41464001
-11.489 1.3217 0.44534001
-11.402 1.3362 0.47624001
-11.319 1.289 0.47909999
-11.234 1.3174 0.47909999
-6.4984999 1.3325 0.46972001
-6.4502001 1.319 0.44159999
-6.3965998 1.289 0.42409
1.9641 1.329 0.44973001
2.0095999 1.2915 0.42534
-11.639 1.409 0.40909001
-11.565 1.4018 0.42545
-11.484 1.4057 0.45324999
-11.429 1.3957 0.47909999
-6.5058999 1.4099 0.45897001
-6.4664998 1.4013 0.42451999
1.9025 1.4256999 0.46408999
1.9375 1.3918 0.44409001
-11.644 1.4821 0.41909
-11.56 1.5003999 0.44575
-11.48 1.4855 0.46909001
-6.5091 1.4927 0.4515
-6.4780002 1.4629 0.41631001
1.8992 1.4715 0.45074999
1.9234 1.4765 0.41659001
-11.701 1.5357 0.40909001
-11.638 1.554 0.42675
-11.569 1.5565 0.44409001
-11.494 1.544 0.46909001
-11.434 1.539 0.47909999
-6.5153999 1.5671999 0.44677001
1.8309 1.599 0.47909999
1.8745 1.5566 0.45030001
-11.379 1.659 0.44909
-11.329 1.6711 0.46825999
-6.5279999 1.6435 0.44769999
1.8209 1.6289999 0.47909999
1.8542 1.6379 0.43186
-11.474 1.734 0.43408999
-11.403 1.7357 0.45159
-11.339 1.729 0.46575999
-6.5380998 1.7239 0.44762
1.804 1.7117 0.45784
1.8408999 1.6957 0.42908999
-6.5732999 1.8203 0.46658999
-6.5485001 1.801 0.43494999
-10.639 1.909 0.47909999
-6.5801001 1.8862 0.45403999
-6.5551 1.8677 0.42442
-10.494 1.929 0.47909999
-10.464 1.9802999 0.47534001
-6.5906 1.9628 0.44325
-10.579 2.049 0.40909001
-10.526 2.053 0.43309
-10.452 2.043 0.47308999
-6.6157999 2.0483 0.44865
-10.584 2.1340001 0.40909001
-10.519 2.1196001 0.43742001
-10.451 2.1124001 0.46408999
-10.382 2.1224 0.47742999
-6.6511002 2.1354001 0.46876001
-6.6257 2.1185 0.43289
-10.517 2.204 0.42159
-10.438 2.2076001 0.44534001
-10.368 2.2007 0.46533999
-10.314 2.184 0.47909999
-6.6658001 2.2024 0.45881
-6.6391001 2.1889999 0.41159001
-10.507 2.2750001 0.41709
-10.445 2.2739999 0.44159001
-10.377 2.2866001 0.46766001
-10.319 2.2590001 0.47909999
-6.6750002 2.2832 0.44492
-10.569 2.3989999 0.40909001
-10.514 2.3540001 0.42409
-10.439 2.3573999 0.44742
-10.373 2.3626001 0.46909001
-6.6760998 2.3673999 0.45686001
-6.6325002 2.3789999 0.41075
-10.577 2.4565001 0.41159001
-10.525 2.4389999 0.42533001
-10.448 2.4405 0.45550999
-6.7391 2.4526 0.47009
-6.6809001 2.4412999 0.44584
-6.6374998 2.4346001 0.41297001
-10.606 2.5253 0.41427001
-10.527 2.513 0.44209
-10.459 2.5114999 0.46783999
-6.7480998 2.5349 0.46191999
-6.691 2.5183001 0.43017
-10.734 2.6340001 0.40909001
-10.674 2.6147001 0.41909
-10.604 2.6063001 0.43636
-10.52 2.6029999 0.46809
-10.464 2.569 0.47909999
-6.8091002 2.6389999 0.47909999
-6.7620001 2.6064999 0.45607001
-6.7027998 2.5991001 0.42265999
-10.755 2.7066 0.42050999
-10.686 2.6914999 0.44034001
-10.613 2.6853001 0.46533999
-6.8165002 2.6866 0.47338
-6.7663002 2.6831999 0.44301
-6.7089 2.6703999 0.41409001
-10.809 2.7390001 0.40909001
-10.769 2.7290001 0.41907999
-10.709 2.7290001 0.43909001
-10.629 2.7390001 0.47909999
-10.099 2.7690001 0.43909001
-10.046 2.7590001 0.46241999
-9.9391003 2.779 0.43909001
-9.8841 2.779 0.43408999
-9.7966003 2.789 0.42409
-9.7291002 2.789 0.43408999
-9.6371002 2.7850001 0.45508999
-9.5790997 2.7757001 0.45908999
-9.4750996 2.789 0.44509
-9.4266005 2.7690001 0.47409001
-9.3141003 2.779 0.47909999
-9.1990995 2.789 0.47909999
-6.8276 2.7642 0.46755001
-6.7783999 2.7590001 0.42631
-9.7191 2.8139999 0.40909001
-9.6525002 2.809 0.41242
-9.5607996 2.809 0.41742
-9.5016003 2.809 0.41907999
-9.2890997 2.819 0.42908999
-9.2378998 2.8427999 0.42783999
-9.1616001 2.8340001 0.44575
-9.0801001 2.8629999 0.41508999
-8.9891005 2.8789999 0.41907999
-8.9291 2.8670001 0.43109
-8.8358002 2.8524001 0.46909001
-8.7475004 2.8757 0.46575001
-6.8305001 2.8468001 0.45673999
-6.7883 2.8394001 0.41242
4.0692 2.8424001 0.40909001
-8.9891005 2.8889999 0.40909001
-8.8957996 2.9024 0.40909001
-8.7291002 2.9089999 0.43909001
-8.6830997 2.895 0.46909001
-8.6079998 2.9189999 0.45465001
-8.5458002 2.9424 0.44242001
-8.4741001 2.9590001 0.45908999
-6.8358002 2.9233 0.45699999
-6.7877002 2.9312999 0.41622999
4.0563998 2.934 0.40909001
-8.5691004 2.9690001 0.40909001
-8.5130997 2.977 0.42908999
-8.4511003 2.9856999 0.46109
-8.3570995 3.029 0.42109001
-6.8361001 3.0048001 0.45388001
-6.7954001 3.0090001 0.41593999
-8.2825003 3.049 0.43575001
-8.1791 3.0840001 0.43909001
-8.1391001 3.099 0.43575001
-8.0471001 3.1110001 0.46608999
-6.8990998 3.119 0.47909999
-6.8431001 3.0847001 0.44801
-6.7990999 3.059 0.40909001
-8.1141005 3.1389999 0.40909001
-8.0375004 3.1507001 0.42741999
-7.9677 3.1619 0.45337
-7.8990998 3.194 0.46408999
-6.8997998 3.1689999 0.46597001
-6.8631001 3.158 0.43057001
-7.9541001 3.224 0.41159001
-7.9091001 3.214 0.43909001
-7.8066001 3.2514999 0.43909001
-7.7041001 3.279 0.46408999
-6.9168 3.2453001 0.44413999
-6.8790998 3.2190001 0.40909001
-7.7691002 3.289 0.40909001
-7.7325001 3.3124001 0.43687001
-7.6202002 3.3412001 0.47576001
-6.9691 3.3540001 0.46909001
-6.9436002 3.322 0.44259
-7.5191002 3.4189999 0.45908999
-6.9809999 3.4173 0.46173999
-6.9517999 3.3957 0.42309001
-7.4691 3.4890001 0.40909001
-6.9879999 3.4853001 0.44547999
-7.3241 3.559 0.40909001
-7.2790999 3.549 0.44909
-7.1675 3.589 0.46241999
-7.0042 3.5518999 0.45249
-7.1890998 3.619 0.40909001
-7.0057998 3.6124001 0.41909
-14.267 -3.5453999 0.49158999
-14.206 -3.5434999 0.51409
-14.121 -3.5592999 0.52130997
-14.048 -3.5499001 0.53825003
-13.982 -3.5610001 0.55508
-9.5560999 -3.5481 0.49033999
-9.4975004 -3.5469999 0.50509
-9.4190998 -3.5534999 0.55159003
1.4866 -3.5462 0.52814001
8.3108997 -3.5810001 0.48909
8.3566999 -3.5515001 0.49812999
8.4462996 -3.5583 0.52994001
8.5108004 -3.5569 0.54575002
8.5719995 -3.5776 0.55742002
-14.439 -3.451 0.48909
-14.339 -3.4542999 0.48909
-14.287 -3.4675 0.51242
-14.202 -3.477 0.54150999
-14.132 -3.4893999 0.54636002
-14.051 -3.5025001 0.55558002
-9.5516996 -3.4807999 0.4939
-9.4860001 -3.48 0.50717002
-9.4059 -3.46 0.54408997
1.5092 -3.4800999 0.53574997
1.5249 -3.4630001 0.51709002
8.2992001 -3.4518001 0.48909
8.3583002 -3.4714 0.50322002
8.4368 -3.4707 0.53618002
8.5054998 -3.4779999 0.55408001
-14.42 -3.3610001 0.48909
-14.362 -3.3894 0.49726999
-14.284 -3.3891001 0.52556002
-14.203 -3.3982999 0.54544997
-14.136 -3.4126 0.55908
-9.4841995 -3.3970001 0.49564001
-9.3991003 -3.3973 0.53595001
-9.3444004 -3.4068 0.55908
1.5437 -3.3998001 0.53051001
8.2888002 -3.3906 0.49629
8.3576002 -3.3971 0.51520002
8.4338999 -3.4038 0.53961003
8.4885998 -3.4065001 0.55908
-14.417 -3.3053999 0.48909
-14.362 -3.3169 0.50700998
-14.272 -3.3074999 0.5402
-14.215 -3.3231001 0.55208999
-9.5416002 -3.2909999 0.49908
-9.4834995 -3.3004999 0.50537997
-9.4078999 -3.3155999 0.53183001
-9.3216 -3.3206999 0.55908
-9.2400999 -3.3174 0.55846
-9.1915998 -3.326 0.55908
1.5802 -3.3222001 0.53096002
1.6059 -3.2909999 0.50283998
8.2235003 -3.2920001 0.49076
8.2785997 -3.3166001 0.50261003
8.3535995 -3.3188 0.52776998
8.4263 -3.3231001 0.55296999
8.4808998 -3.3510001 0.55908
-14.499 -3.221 0.48909
-14.437 -3.2267001 0.50352001
-14.366 -3.2316 0.52034003
-14.279 -3.2374001 0.54281002
-14.221 -3.2484 0.55787998
-9.5426998 -3.2376001 0.49265999
-9.4871998 -3.2386999 0.50362998
-9.4032001 -3.244 0.52998
-9.3340998 -3.2463 0.55707997
1.6213 -3.2306001 0.52819002
8.2062998 -3.2342 0.49314001
8.2719002 -3.2363999 0.51564002
8.3559999 -3.2407999 0.54534
8.4195004 -3.2374001 0.55908
-14.496 -3.1623001 0.48909
-14.442 -3.1635001 0.5068
-14.366 -3.1531 0.53222001
-14.291 -3.1580999 0.54986
-9.5424995 -3.1375999 0.48909
-9.4856005 -3.1473999 0.50480998
-9.4027004 -3.1638 0.52908999
-9.3441 -3.1559999 0.55308998
1.6576999 -3.1491001 0.52846003
1.6809 -3.1210001 0.49908
8.1508999 -3.1359999 0.48909
8.1973 -3.154 0.50068003
8.2777004 -3.1579001 0.52278
8.3529997 -3.1619 0.54971999
8.4008999 -3.1760001 0.55908
-14.499 -3.0826001 0.50853997
-14.444 -3.0796001 0.53064001
-14.389 -3.0785 0.54658997
-9.5445004 -3.0689001 0.49408999
-9.4811001 -3.072 0.51059002
-9.4020004 -3.0853 0.53766
-9.3525 -3.0943 0.55575001
1.6975 -3.076 0.51576
8.1337004 -3.0704 0.49131
8.1934004 -3.0764999 0.50537997
8.2771997 -3.0755999 0.53315002
8.3477001 -3.0806 0.55144
-14.513 -2.9942999 0.49908999
-14.442 -3.0118001 0.54325002
-14.399 -3.0309999 0.55908
-9.5501003 -2.9979999 0.49809
-9.4905996 -2.9902999 0.52193999
-9.4052 -2.9941001 0.54909003
1.7158999 -3.0235 0.52158999
8.1196003 -2.9913001 0.49500999
8.1957998 -2.9972999 0.51909
8.2732 -2.9891 0.54688001
8.3355999 -3.0146999 0.55873001
-14.591 -2.8958001 0.49009001
-14.528 -2.9164 0.50283998
-14.45 -2.9324 0.54052001
-9.6216002 -2.8859999 0.48909
-9.5662003 -2.9128001 0.50427997
-9.4748001 -2.9045 0.54194999
-9.4291 -2.9175999 0.55575001
1.7709 -2.881 0.54909003
8.0599003 -2.9068 0.48909
8.1139002 -2.9144001 0.50285
8.2027998 -2.9145 0.53004998
8.2700005 -2.918 0.55365002
-14.673 -2.8110001 0.48991999
-14.603 -2.8457999 0.50090998
-14.517 -2.8373001 0.52908999
-14.479 -2.8710001 0.53908998
-9.6891003 -2.8310001 0.48909
-9.6424999 -2.8276 0.50409001
-9.5556002 -2.8367 0.53052002
-9.4841003 -2.8408 0.54658997
-9.4391003 -2.8110001 0.55908
1.7975 -2.8373001 0.51594001
8.0492001 -2.8281 0.49779999
8.1197996 -2.8397999 0.51511002
8.1949997 -2.8354001 0.54088998
8.2482004 -2.8364 0.55707997
-14.672 -2.7409 0.49652001
-14.605 -2.7549 0.51345003
-14.526 -2.7599001 0.54158998
-9.7054996 -2.7656 0.49208999
-9.6448002 -2.7495 0.51481003
-9.5655003 -2.7716 0.53908998
-9.4815998 -2.7600999 0.55325001
-9.4324999 -2.7576001 0.55908
1.8275 -2.7725999 0.51909
1.8459001 -2.7309999 0.50409001
7.9875002 -2.7586 0.48909
8.0370998 -2.7535999 0.49937999
8.1163998 -2.7526 0.52310002
8.1918001 -2.7562001 0.54790002
8.2509003 -2.7909999 0.55908
-14.731 -2.6719999 0.49208999
-14.681 -2.6819 0.50992
-14.598 -2.6802001 0.54453999
-14.539 -2.6960001 0.55908
-9.7220001 -2.6838 0.49623001
-9.6403999 -2.6903999 0.51784003
-9.5628996 -2.6760001 0.54096001
-9.4878998 -2.6716001 0.55658001
-9.4291 -2.701 0.55908
1.8668 -2.6731999 0.52408999
7.9867001 -2.6747 0.48909
8.0382996 -2.6735001 0.50375003
8.1133003 -2.674 0.53018999
8.1798 -2.6819999 0.55339998
-14.816 -2.5732 0.48909
-14.766 -2.5913 0.50325
-14.683 -2.5967 0.53266001
-14.623 -2.6073 0.55259001
-9.7971001 -2.5829999 0.48909
-9.7330999 -2.589 0.50108999
-9.6585999 -2.5906999 0.52074999
-9.5670004 -2.5903001 0.55479997
-9.5191002 -2.6010001 0.55908
1.8983999 -2.6004 0.51909
1.9209 -2.5610001 0.50909001
7.9755998 -2.5948 0.49070001
8.0348997 -2.5964 0.50816
8.1127005 -2.5976 0.53517997
8.1821003 -2.6032 0.55743003
-14.844 -2.5207 0.49783999
-14.766 -2.5222001 0.51991999
-14.683 -2.526 0.54759997
-14.629 -2.5409999 0.55908
-10.249 -2.5209999 0.55908
-9.7997999 -2.5109999 0.49552
-9.7257996 -2.5176001 0.51409
-9.6450996 -2.5146999 0.54408997
-9.5825005 -2.5376 0.55575001
1.9365 -2.5114 0.52951002
7.9714999 -2.5120001 0.49147999
8.0361996 -2.5100999 0.51358998
8.1202002 -2.5199001 0.53797001
8.1866999 -2.5046 0.55356002
-14.901 -2.4354 0.49241999
-14.845 -2.4418001 0.51659
-14.764 -2.4430001 0.53908998
-14.699 -2.4447 0.55034
-10.259 -2.421 0.54909003
-10.239 -2.421 0.49908
-9.8041 -2.4360001 0.49742001
-9.7209997 -2.4472001 0.52784002
-9.6444998 -2.4256001 0.55109
1.9748 -2.4303999 0.52130997
2.0009 -2.401 0.48909
7.9808998 -2.471 0.48909
8.0349998 -2.4626 0.49076
8.1211004 -2.4495001 0.49956
8.2006998 -2.4395001 0.51077998
8.2734003 -2.4356999 0.52911001
8.3484001 -2.4182 0.54806
-14.974 -2.3410001 0.48909
-14.923 -2.3426001 0.49575999
-14.847 -2.3625 0.52371001
-14.76 -2.3638 0.55337
-14.707 -2.3626001 0.55908
-9.8023005 -2.3578999 0.50409001
-9.7188997 -2.3471999 0.51784003
-9.6435003 -2.3522 0.54534
-9.5890999 -2.3510001 0.55908
1.9909 -2.391 0.51909
2.0139 -2.3410001 0.52209002
8.2308998 -2.391 0.48909
8.2749004 -2.372 0.4955
8.3634005 -2.3517001 0.51745999
8.4266005 -2.3485999 0.54668999
8.4875002 -2.3276 0.55908
-15.017 -2.2609999 0.48909
-14.923 -2.2667 0.50838
-14.84 -2.2788 0.53687
-14.784 -2.2909999 0.55658001
-10.289 -2.2609999 0.55908
-9.7890997 -2.2709999 0.49158999
-9.7265997 -2.2697001 0.50159001
-9.6391001 -2.2788 0.53798002
-9.5941 -2.2509999 0.55408001
2.0471001 -2.2722001 0.51909
8.3656998 -2.286 0.49076
8.4462004 -2.2730999 0.50752997
8.5105 -2.2685001 0.53513002
8.5909004 -2.2409999 0.55908
-15.073 -2.1840999 0.49533999
-15.001 -2.1931 0.51271999
-14.93 -2.2053001 0.5248
-14.853 -2.1921999 0.54596001
-14.783 -2.217 0.55908
-9.7691002 -2.1659999 0.48909
-9.7261 -2.175 0.49608999
-9.6410999 -2.1949999 0.53509003
-9.5890999 -2.1884999 0.55908
2.0659001 -2.2126 0.53074998
2.0895 -2.1723001 0.52174997
8.4586 -2.221 0.49548
8.5176001 -2.2112 0.51128
8.5937004 -2.2117 0.54861999
8.6575003 -2.171 0.55408001
-15.139 -2.1110001 0.48909
-15.086 -2.1094999 0.50509
-15.001 -2.1240001 0.53309
-14.92 -2.131 0.55508
-14.854 -2.1170001 0.55408001
-9.7066002 -2.0871999 0.50783998
-9.6450005 -2.1135001 0.53074998
-9.5991001 -2.0910001 0.55908
2.1163001 -2.1145999 0.51818001
8.5409002 -2.151 0.48909
8.5986996 -2.1315 0.50167
8.6731997 -2.1138999 0.52205002
8.7505999 -2.0961001 0.54838997
-15.129 -2.0309999 0.49908
-15.082 -2.0393 0.51283997
-15.001 -2.0295 0.53500998
-14.928 -2.0369999 0.54909003
-14.879 -2.0610001 0.55408001
-9.8141003 -2.0009999 0.51409
-9.7224998 -2.0276 0.51909
-9.6640997 -2.026 0.54658997
2.1436999 -2.0474 0.52814001
2.1684 -2.0197001 0.50533998
8.6925001 -2.0546 0.49742001
8.7632999 -2.0510001 0.52363002
8.8322001 -2.0285001 0.53885001
8.8892002 -2.0085001 0.54909003
-15.129 -1.951 0.50409001
-15.094 -1.9554 0.51354003
-15.002 -1.967 0.53509003
-14.944 -1.976 0.55408001
-10.433 -1.951 0.52508998
-9.9640999 -1.921 0.51409
-9.8790998 -1.9543 0.51909
-9.7940998 -1.9553 0.53908998
-9.7241001 -1.9674 0.55052
-9.6690998 -1.9809999 0.55408001
2.1896999 -1.9523 0.52614999
8.7875004 -1.9843 0.48909
8.8460999 -1.9694 0.50357002
8.9167004 -1.9561 0.52034003
8.974 -1.9524 0.54290003
-15.129 -1.886 0.50909001
-15.076 -1.8843 0.51909
-15.005 -1.8704 0.55220997
-14.959 -1.911 0.55908
-10.454 -1.891 0.54158002
-9.9555998 -1.876 0.52258998
-9.8803997 -1.8822 0.53908998
-9.8128996 -1.8835 0.55034
-9.7490997 -1.896 0.55908
2.2217 -1.8753999 0.53513002
2.2409 -1.8535 0.50659001
8.9349003 -1.8983999 0.49542001
9.0028 -1.8734 0.50950003
9.0695 -1.8719 0.54193997
-15.134 -1.791 0.51409
-15.084 -1.8004 0.52631003
-15.016 -1.811 0.55242002
-10.469 -1.821 0.54575002
-9.9586 -1.7871 0.52241999
-9.8683996 -1.7898999 0.54426998
-9.8240995 -1.8026 0.55742002
2.2565999 -1.7876 0.52099001
9.0166998 -1.8161 0.49125999
9.0775995 -1.8041 0.51368999
9.1534004 -1.7913001 0.54711998
-15.139 -1.681 0.52907997
-15.082 -1.7247 0.53158998
-15.027 -1.7185 0.55658001
-9.9691 -1.723 0.50309002
-9.8835001 -1.7266001 0.53220999
-9.8157997 -1.681 0.53241998
2.2886 -1.7157 0.52130997
9.0909004 -1.7309999 0.48909
9.1618004 -1.7172 0.50909001
9.2311001 -1.7072999 0.53719997
9.2933998 -1.681 0.55408001
-15.129 -1.631 0.53908998
-15.094 -1.651 0.55159003
-10.519 -1.671 0.55908
-9.9357996 -1.6343 0.50242001
-9.8957996 -1.6426001 0.51909
-9.8041 -1.641 0.54408997
2.3109 -1.651 0.53408998
2.3327 -1.6195 0.52003998
9.1908998 -1.671 0.48909
9.2302999 -1.671 0.51826
9.3359003 -1.651 0.55408001
9.4008999 -1.641 0.55908
-15.129 -1.576 0.53908998
-15.088 -1.5632 0.55686003
-9.9547005 -1.5532 0.49798
-9.8766003 -1.5642999 0.52491999
-9.8058004 -1.5642999 0.55242002
2.3554001 -1.562 0.53342003
-15.137 -1.4785 0.53658998
-15.1 -1.467 0.54708999
-10.019 -1.461 0.48909
-9.9635 -1.4779 0.50283998
-9.8774996 -1.476 0.53741997
-9.8216 -1.476 0.55658001
2.385 -1.4926 0.53741997
2.4109001 -1.4601001 0.50576001
-15.139 -1.416 0.54909003
-15.119 -1.411 0.55908
-10.104 -1.381 0.49158999
-10.043 -1.3932 0.49742001
-9.9624996 -1.3982 0.51409
-9.8891001 -1.3922 0.54158998
2.4353001 -1.3913 0.52376997
-15.129 -1.341 0.55908
-10.127 -1.3115 0.49687001
-10.042 -1.3097 0.51533997
-9.9675999 -1.3225 0.53808999
-9.8971004 -1.3279999 0.55508
2.4639001 -1.3279999 0.52683997
2.4849 -1.293 0.51309001
-10.769 -1.251 0.53908998
-10.179 -1.221 0.48909
-10.133 -1.2224 0.50480002
-10.052 -1.2359999 0.53408998
-9.9647999 -1.2397 0.55532998
2.5078001 -1.2319 0.52531999
-10.829 -1.156 0.54909003
-10.192 -1.152 0.49208999
-10.134 -1.1538 0.51337999
-10.052 -1.171 0.54479998
2.5352001 -1.1767 0.53087002
2.5717001 -1.1285 0.51574999
-10.859 -1.086 0.54909003
-10.249 -1.051 0.48909
-10.207 -1.0685 0.50409001
-10.122 -1.0693001 0.53464001
-10.069 -1.081 0.55908
2.5899 -1.0769 0.52003002
-10.285 -1.0015 0.49463999
-10.206 -0.98430997 0.52770001
-10.122 -0.98698002 0.55308998
2.6154001 -0.99706 0.53735
2.6408999 -0.97097999 0.52408999
-10.29 -0.91763997 0.50409001
-10.204 -0.89930999 0.54575998
-10.148 -0.91973001 0.55658001
2.6703 -0.91135001 0.51576
-10.944 -0.83098 0.52908999
-10.339 -0.85097998 0.48909
-10.275 -0.83848 0.51659
-10.203 -0.83284998 0.54909003
-10.149 -0.82098001 0.55908
2.6959 -0.84542 0.53131002
2.7209001 -0.82098001 0.49241999
-10.271 -0.75431001 0.51741999
-10.202 -0.76181 0.55242002
2.7109001 -0.78097999 0.54909003
2.7418001 -0.74915999 0.52135998
-10.284 -0.66763997 0.50909001
-10.203 -0.67931002 0.54992002
2.7727001 -0.6728 0.5359
2.8009 -0.64098001 0.50909001
-10.414 -0.56098002 0.49408999
-10.356 -0.58098 0.49509001
-10.279 -0.59430999 0.52241999
-10.217 -0.59680998 0.55075002
2.7909 -0.62098002 0.55908
2.8141999 -0.59097999 0.52158999
-10.429 -0.53597999 0.49408999
-10.373 -0.52669001 0.49908999
-10.276 -0.51098001 0.52695
-10.221 -0.51348001 0.55075002
2.845 -0.52348 0.52157998
-11.139 -0.45098001 0.52907997
-10.357 -0.46397999 0.49109
-10.283 -0.43145001 0.51718003
-10.216 -0.43643001 0.54817998
2.8669 -0.46197999 0.52741998
2.8808999 -0.46098 0.48909
-11.164 -0.39098001 0.54408997
-10.35 -0.34764001 0.49908999
-10.282 -0.35209 0.51187003
-10.219 -0.33897999 0.54509002
-10.159 -0.37097999 0.55908
-11.239 -0.27098 0.54909003
-10.519 -0.24098 0.48909
-10.436 -0.27498001 0.49509001
-10.376 -0.27098 0.51709002
-10.293 -0.29697999 0.51909
-10.234 -0.27098 0.55408001
-11.269 -0.19598 0.53908998
-10.512 -0.19598 0.48909
-10.429 -0.19698 0.50659001
-10.382 -0.18848 0.54158998
-6.2725 -0.16764 0.52241999
-6.2097998 -0.17098001 0.53034002
-6.1391001 -0.17098001 0.53908998
-11.289 -0.10598 0.51407999
-11.269 -0.14098001 0.51909
-10.596 -0.12431 0.48909
-10.522 -0.12026 0.50195003
-10.444 -0.12535 0.52034003
-10.399 -0.12098 0.54909003
-6.4665999 -0.10223 0.53325999
-6.1890998 -0.15098 0.50576001
-11.333 -0.038977001 0.51309001
-10.589 -0.042977002 0.49109
-10.524 -0.041602001 0.51846999
-10.452 -0.039726999 0.55158001
-10.389 -0.070977002 0.55908
-6.4891 -0.010977 0.55908
-6.4741001 -0.026215 0.53027999
-5.9657998 -0.01431 0.49908999
-5.8491001 -0.028477 0.55408001
-5.8024998 -0.028477 0.55658001
-11.374 0.049022999 0.55908
-11.354 0.039023001 0.52907997
-10.574 0.029022999 0.49408999
-10.512 0.021523001 0.54908001
-6.4891 0.029022999 0.54909003
-6.4699001 0.047515001 0.51512003
-6.0158 0.025689 0.51574999
-5.9891 0.019022999 0.50909001
-5.8713999 0.044578001 0.55908
-5.8390999 0.019022999 0.55908
-3.8125 0.075689003 0.55908
-11.389 0.089023001 0.54909003
-6.4720998 0.11469 0.51375002
-6.0391002 0.14568999 0.50909001
-5.9629002 0.12651999 0.53908998
-5.9015999 0.11152 0.55658001
-4.3329 0.14151999 0.53158998
-4.2990999 0.13902 0.54534
-4.1950998 0.15452 0.54408997
-4.1424999 0.15902001 0.54575998
-4.0290999 0.14402001 0.50909001
-3.9663999 0.15309 0.53346002
-3.8766999 0.12695 0.54672003
-3.8171999 0.11526 0.55782998
-6.4891 0.21402 0.55242002
-6.4741001 0.21142 0.50788999
-6.1090999 0.23401999 0.50159001
-6.0472002 0.20762999 0.52408999
-5.9625001 0.2093 0.54825002
-5.8790998 0.16902 0.55908
-5.7191 0.19902 0.54909003
-5.6791 0.19902 0.55908
-4.2711 0.21980999 0.5388
-4.2049999 0.20991001 0.52739
-4.1198001 0.20299999 0.52241999
-4.0503998 0.20341 0.52677
-3.9628 0.2079 0.53851998
-3.8873 0.1991 0.55216002
-3.8390999 0.16902 0.55908
-10.604 0.29402 0.49408999
-10.559 0.26901999 0.49908
-6.4928999 0.28777 0.5395
-6.4681001 0.28501999 0.49408999
-6.1059999 0.29444 0.49471
-6.0391002 0.27616999 0.52552003
-5.9802999 0.28617001 0.54623002
-4.2515998 0.25902 0.52408999
-4.2007999 0.28584999 0.50826001
-4.1265001 0.28713 0.51078999
-4.0421 0.28676999 0.52197999
-3.9647 0.27298 0.53838998
-3.8817 0.28683999 0.54808998
-3.8139 0.2859 0.55524999
-10.729 0.38902 0.48909
-10.674 0.37527001 0.49158999
-10.609 0.34759 0.49766001
-6.4958 0.37902001 0.53908998
-6.4733 0.36985999 0.50492001
-6.1048002 0.36715001 0.52784002
-6.0468998 0.3619 0.55295002
-4.3491001 0.38902 0.55908
-4.1912999 0.35608 0.49513
-4.1247001 0.3619 0.50349998
-4.0426998 0.36324999 0.51620001
-3.9662001 0.36239001 0.52487999
-3.8889999 0.36820999 0.53127003
-3.7992001 0.36116999 0.54694998
-3.7328 0.37968001 0.55198002
-3.6579001 0.38529 0.55721998
-10.742 0.41152 0.48909
-10.688 0.44758999 0.49908999
-10.619 0.40902001 0.49908
-6.5018001 0.43579 0.53398001
-6.1100001 0.45651999 0.52408999
-6.0629001 0.43694001 0.55075002
-4.3390999 0.40902001 0.54909003
-4.3087001 0.45986 0.54784
-4.1083002 0.4434 0.49052
-4.0402002 0.44262001 0.49584001
-3.967 0.4452 0.50615001
-3.8829999 0.45122001 0.51293999
-3.8085999 0.44315001 0.52462
-3.7270999 0.44060999 0.53415
-3.6417 0.44687 0.54909003
-3.5741 0.46318999 0.55508
-10.999 0.55901998 0.48909
-10.939 0.55901998 0.50909001
-10.752 0.54901999 0.51909
-10.679 0.52701998 0.53707999
-6.5057998 0.52794999 0.51897001
-6.1236 0.53123999 0.54575002
-4.2651 0.53135997 0.53342003
-4.0541 0.48901999 0.48909
-3.9607999 0.50111002 0.49076
-3.8928001 0.50240999 0.49491999
-3.8095 0.52884001 0.49333
-3.7258999 0.52029997 0.50642002
-3.6475 0.52898997 0.51995999
-3.5627999 0.52333999 0.53728998
-3.483 0.53403997 0.54961002
-3.4184999 0.54623997 0.54909003
-11.797 0.62651998 0.53158998
-11.729 0.58902001 0.54658997
-10.996 0.61568999 0.49575001
-10.921 0.6031 0.51428002
-10.844 0.59902 0.53534001
-10.763 0.60901999 0.54909003
-10.709 0.58402002 0.55408001
